# .PCD v0.7 - Point Cloud Data file format
VERSION 0.7
FIELDS x y z intensity
SIZE 4 4 4 4
TYPE F F F F
COUNT 1 1 1 1
WIDTH 1848
HEIGHT 1
VIEWPOINT 0 0 0 1 0 0 0
POINTS 1848
DATA ascii
-11.039 -12.502 0.515 0.000
-11.179 -12.695 0.519 0.000
-11.358 -12.953 0.524 0.300
-11.438 -13.081 0.526 0.000
-11.456 -13.138 0.527 0.120
-11.582 -13.319 0.530 0.280
-6.923 -7.995 0.401 0.000
-11.936 -13.802 0.541 0.000
-11.917 -13.820 0.540 0.090
-6.973 -8.120 0.403 0.090
-6.989 -8.149 0.403 0.450
-6.927 -8.122 0.402 0.340
-7.004 -8.235 0.404 0.000
-11.826 -13.924 0.539 0.000
-11.793 -13.924 0.538 0.060
-7.000 -8.309 0.404 0.250
-7.015 -8.350 0.405 0.210
-7.003 -8.359 0.405 0.550
-6.942 -8.309 0.403 0.120
-12.428 -14.895 0.557 0.420
-12.412 -14.916 0.557 0.390
-12.388 -14.908 0.556 0.510
-12.382 -14.941 0.556 0.390
-12.359 -14.954 0.556 0.450
-12.307 -14.931 0.554 0.610
-7.258 -8.840 0.413 0.200
-7.257 -8.863 0.413 0.380
-7.233 -8.857 0.412 0.220
-7.248 -8.888 0.413 0.360
-6.929 -8.521 0.404 0.320
-7.109 -8.765 0.409 0.280
-7.205 -8.907 0.412 0.310
-7.215 -8.943 0.413 0.380
-7.058 -8.772 0.408 0.230
-7.167 -8.931 0.411 0.380
-7.209 -8.995 0.413 0.220
-7.188 -8.993 0.412 0.290
-7.201 -9.034 0.413 0.410
-7.075 -8.900 0.409 0.210
-6.994 -8.821 0.407 0.350
-7.021 -8.879 0.408 0.170
-6.907 -8.759 0.405 0.110
-6.879 -8.735 0.404 0.390
-6.887 -8.768 0.405 0.250
-6.868 -8.768 0.404 0.190
-6.887 -8.816 0.405 0.160
-6.870 -8.817 0.405 0.000
-6.879 -8.852 0.405 0.000
-6.865 -8.858 0.405 0.000
-6.873 -8.880 0.405 0.060
-6.836 -8.855 0.405 0.130
-6.842 -8.886 0.405 0.140
-6.843 -8.911 0.405 0.170
-6.825 -8.911 0.405 0.160
-6.841 -8.955 0.405 0.400
-6.855 -8.997 0.406 0.240
-6.837 -8.985 0.406 0.120
-6.847 -9.022 0.406 0.390
-6.844 -9.042 0.406 0.220
-6.852 -9.076 0.407 0.280
-6.845 -9.091 0.407 0.230
-6.831 -9.096 0.406 0.180
-6.852 -9.148 0.407 0.470
-6.858 -9.168 0.408 0.190
-6.870 -9.208 0.408 0.380
-6.857 -9.214 0.408 0.240
-6.838 -9.213 0.408 0.210
-6.868 -9.278 0.409 0.410
-6.860 -9.291 0.409 0.220
-6.860 -9.315 0.409 0.240
-6.841 -9.302 0.408 0.180
-6.773 -9.234 0.407 0.170
-6.863 -9.380 0.410 0.000
-6.871 -9.415 0.410 0.140
-6.855 -9.418 0.410 0.230
-6.847 -9.432 0.410 0.220
-6.880 -9.502 0.411 0.430
-6.874 -9.506 0.411 0.200
-6.864 -9.517 0.411 0.210
-6.939 -9.646 0.413 0.340
-6.935 -9.665 0.413 0.290
-6.945 -9.704 0.414 0.350
-6.923 -9.699 0.414 0.250
-6.938 -9.745 0.414 0.350
-6.921 -9.734 0.414 0.290
-6.929 -9.770 0.414 0.300
-6.936 -9.806 0.415 0.310
-6.924 -9.814 0.415 0.310
-6.940 -9.862 0.416 0.350
-6.927 -9.870 0.415 0.290
-6.927 -9.895 0.416 0.310
-6.947 -9.936 0.416 0.340
-6.943 -9.957 0.417 0.320
-6.944 -9.984 0.417 0.310
-6.949 -10.017 0.417 0.320
-6.943 -10.035 0.418 0.350
-6.946 -10.065 0.418 0.290
-6.922 -10.057 0.417 0.280
-6.875 -10.002 0.416 0.130
-6.902 -10.069 0.417 0.290
-6.894 -10.083 0.417 0.210
-6.901 -10.119 0.418 0.250
-6.896 -10.138 0.418 0.130
-6.895 -10.163 0.418 0.160
-6.909 -10.198 0.419 0.170
-6.915 -10.233 0.419 0.180
-6.898 -10.234 0.419 0.340
-6.898 -10.261 0.420 0.210
-6.895 -10.283 0.420 0.200
-6.909 -10.331 0.421 0.390
-6.893 -10.334 0.420 0.250
-6.893 -10.348 0.421 0.180
-6.909 -10.399 0.421 0.290
-6.907 -10.423 0.422 0.210
-6.896 -10.434 0.422 0.160
-6.909 -10.481 0.422 0.420
-6.904 -10.501 0.423 0.240
-6.899 -10.521 0.423 0.270
-6.910 -10.551 0.423 0.290
-6.907 -10.574 0.424 0.120
-6.901 -10.593 0.424 0.280
-6.908 -10.632 0.424 0.180
-6.904 -10.654 0.425 0.300
-6.897 -10.671 0.425 0.000
-6.899 -10.702 0.425 0.000
-6.927 -10.759 0.426 0.090
-6.932 -10.796 0.427 0.170
-6.967 -10.879 0.428 0.320
-6.944 -10.872 0.428 0.090
-11.247 -17.637 0.564 0.330
-11.243 -17.677 0.565 0.320
-11.221 -17.690 0.565 0.310
-11.223 -17.716 0.565 0.310
-11.221 -17.760 0.566 0.310
-11.199 -17.773 0.565 0.300
-11.106 -17.672 0.563 0.230
-11.099 -17.708 0.564 0.390
-11.011 -17.615 0.561 0.230
-10.990 -17.629 0.561 0.320
-10.977 -17.631 0.561 0.330
-10.952 -17.638 0.561 0.270
-10.947 -17.677 0.562 0.200
-11.000 -17.811 0.564 0.360
-10.986 -17.835 0.564 0.360
-11.024 -17.947 0.566 0.660
-11.029 -18.004 0.567 0.000
-10.958 -17.912 0.565 0.000
-10.851 -17.785 0.563 0.070
-10.628 -17.466 0.556 0.160
-10.446 -17.214 0.551 0.110
-7.014 -11.601 0.439 0.280
-7.173 -11.895 0.445 0.140
-7.728 -12.847 0.463 0.000
-7.877 -13.112 0.469 0.000
-7.408 -12.469 0.455 0.220
-7.191 -12.138 0.448 0.000
-7.540 -12.760 0.461 0.000
-7.195 -12.228 0.450 0.000
-7.362 -12.546 0.456 0.030
-7.335 -12.534 0.456 0.140
-7.292 -12.495 0.455 0.180
-7.297 -12.538 0.456 0.310
-7.224 -12.430 0.453 0.160
-7.172 -12.375 0.452 0.210
-7.144 -12.361 0.452 0.420
-7.092 -12.306 0.451 0.250
-7.064 -12.292 0.450 0.240
-7.012 -12.236 0.449 0.290
-7.012 -12.270 0.449 0.290
-7.009 -12.281 0.450 0.270
-6.858 -12.052 0.445 0.000
-6.974 -12.289 0.450 0.000
-7.002 -12.373 0.451 0.000
-6.969 -12.350 0.451 0.090
-6.949 -12.349 0.450 0.200
-6.947 -12.381 0.451 0.120
-6.860 -12.244 0.448 0.180
-6.958 -12.453 0.452 0.150
-6.960 -12.492 0.453 0.170
-6.967 -12.541 0.454 0.420
-6.965 -12.573 0.454 0.250
-6.959 -12.598 0.455 0.160
-6.982 -12.678 0.456 0.430
-6.982 -12.696 0.457 0.250
-6.987 -12.742 0.457 0.290
-6.988 -12.780 0.458 0.280
-6.993 -12.826 0.459 0.240
-6.990 -12.858 0.459 0.260
-6.996 -12.907 0.460 0.210
-6.986 -12.926 0.461 0.170
-7.004 -12.979 0.462 0.260
-7.005 -13.018 0.462 0.180
-7.035 -13.112 0.464 0.140
-7.060 -13.197 0.466 0.410
-7.033 -13.186 0.465 0.130
-7.032 -13.223 0.466 0.120
-7.036 -13.270 0.467 0.130
-7.059 -13.333 0.468 0.430
-7.062 -13.378 0.469 0.370
-7.069 -13.431 0.470 0.300
-7.071 -13.475 0.471 0.310
-7.062 -13.498 0.471 0.290
-7.071 -13.556 0.472 0.310
-7.068 -13.571 0.473 0.300
-7.062 -13.601 0.473 0.250
-12.476 -24.073 0.677 0.170
-12.399 -23.997 0.675 0.320
-12.288 -23.855 0.672 0.480
-12.192 -23.741 0.670 0.290
-12.071 -23.579 0.667 0.510
-11.979 -23.471 0.665 0.320
-11.887 -23.327 0.662 0.490
-11.791 -23.210 0.660 0.320
-11.683 -23.070 0.657 0.500
-11.594 -22.966 0.655 0.320
-11.486 -22.823 0.652 0.510
-11.398 -22.719 0.650 0.340
-11.312 -22.583 0.647 0.450
-11.215 -22.461 0.645 0.420
-11.118 -22.337 0.643 0.410
-11.031 -22.232 0.641 0.370
-10.928 -22.095 0.638 0.630
-10.847 -22.001 0.636 0.220
-7.547 -15.368 0.507 0.320
-7.547 -15.392 0.508 0.160
-7.595 -15.539 0.511 0.000
-7.585 -15.569 0.511 0.000
-7.603 -15.941 0.519 0.440
-7.587 -15.960 0.519 0.100
-7.599 -16.038 0.521 0.000
-7.606 -16.106 0.522 0.000
-7.630 -16.238 0.525 0.000
-7.628 -16.288 0.526 0.000
-7.611 -16.417 0.528 0.430
-7.609 -16.469 0.530 0.270
-7.592 -16.488 0.530 0.120
-7.598 -16.530 0.531 0.160
-7.621 -16.636 0.533 0.150
-7.614 -16.679 0.534 0.000
-7.633 -16.779 0.536 0.000
-7.668 -16.972 0.540 0.110
-7.623 -16.933 0.539 0.130
-7.635 -16.989 0.540 0.000
-7.613 -17.001 0.541 0.000
-7.646 -17.259 0.546 0.220
-7.638 -17.303 0.547 0.000
-7.655 -17.404 0.549 0.000
-7.944 -18.091 0.563 0.000
-7.662 -17.578 0.553 0.240
-7.649 -17.613 0.554 0.090
-7.614 -17.662 0.555 0.350
-7.551 -17.582 0.554 0.300
-7.511 -17.522 0.552 0.330
-7.456 -17.458 0.551 0.300
-7.393 -17.377 0.550 0.330
-7.333 -17.302 0.549 0.290
-7.278 -17.237 0.548 0.320
-7.222 -17.170 0.546 0.380
-7.195 -17.171 0.547 0.300
-7.207 -17.233 0.548 0.290
-7.215 -17.319 0.550 0.450
-7.114 -17.143 0.546 0.270
-7.087 -17.145 0.547 0.310
-7.188 -17.456 0.553 0.290
-7.120 -17.360 0.551 0.280
-7.167 -17.578 0.556 0.460
-7.191 -17.707 0.559 0.310
-7.255 -17.938 0.563 0.580
-7.061 -17.528 0.555 0.250
-7.014 -17.481 0.555 0.100
-6.995 -17.506 0.555 0.110
-9.345 -23.420 0.673 0.180
-9.286 -23.367 0.672 0.480
-7.284 -18.417 0.574 0.230
-7.246 -18.397 0.574 0.230
-8.970 -22.954 0.665 0.340
-8.894 -22.855 0.663 0.270
-8.853 -22.798 0.662 0.510
-8.789 -22.729 0.661 0.270
-7.260 -18.864 0.585 0.200
-8.568 -22.448 0.657 0.500
-8.355 -22.082 0.650 0.550
-8.353 -22.175 0.652 0.220
-7.277 -19.369 0.596 0.000
-7.269 -19.433 0.598 0.130
-7.277 -19.541 0.600 0.270
-8.019 -21.724 0.645 0.340
-7.951 -21.638 0.643 0.330
-7.885 -21.557 0.642 0.460
-7.336 -20.105 0.613 0.390
-7.289 -20.069 0.613 0.150
-7.703 -21.306 0.638 0.260
-7.642 -21.236 0.637 0.310
-7.580 -21.165 0.636 0.520
-7.406 -20.779 0.629 0.230
-7.314 -20.569 0.624 0.330
-7.306 -20.646 0.626 0.140
-7.268 -20.637 0.627 0.290
-7.230 -20.631 0.627 0.190
-7.183 -20.596 0.627 0.300
-7.132 -20.552 0.626 0.270
-7.235 -21.003 0.636 0.350
-7.258 -21.174 0.640 0.210
-7.190 -21.083 0.638 0.170
-7.143 -21.051 0.638 0.150
-7.098 -21.027 0.638 0.130
-7.156 -21.307 0.644 0.210
-7.167 -21.451 0.648 0.420
-7.191 -21.577 0.650 0.180
-7.210 -21.750 0.654 0.200
-7.221 -21.899 0.658 0.430
-7.787 -23.864 0.699 0.590
-7.261 -22.375 0.669 0.360
-7.255 -22.479 0.672 0.230
-8.177 -25.398 0.732 0.090
-8.143 -25.433 0.734 0.130
-7.232 -22.718 0.678 0.180
-7.453 -23.545 0.696 0.330
-7.393 -23.486 0.695 0.210
-7.331 -23.422 0.694 0.520
-7.201 -23.140 0.689 0.250
-7.228 -23.295 0.693 0.450
-7.171 -23.246 0.692 0.200
-8.948 -29.160 0.816 0.230
-8.429 -27.633 0.785 0.250
-8.362 -27.578 0.784 0.380
-8.281 -27.475 0.783 0.330
-8.581 -28.641 0.808 0.230
-8.567 -28.681 0.809 0.370
-8.481 -28.569 0.808 0.320
-7.321 -24.824 0.730 0.580
-7.229 -24.665 0.727 0.240
-7.983 -27.579 0.790 0.450
-7.900 -27.469 0.788 0.380
-7.855 -27.399 0.787 0.290
-7.779 -27.312 0.786 0.230
-7.720 -27.283 0.786 0.250
-7.669 -27.283 0.787 0.450
-7.601 -27.224 0.787 0.340
-7.522 -27.124 0.785 0.300
-7.447 -27.035 0.784 0.110
-7.417 -27.021 0.784 0.190
-7.417 -27.207 0.789 0.390
-7.285 -26.911 0.784 0.160
-7.454 -27.727 0.802 0.310
-7.352 -27.541 0.799 0.000
-9.550 -36.012 0.981 0.000
-7.892 -30.323 0.862 0.170
-7.821 -30.274 0.862 0.120
-7.713 -30.083 0.859 0.270
-7.657 -30.091 0.860 0.370
-7.591 -30.062 0.860 0.280
-7.504 -29.952 0.859 0.540
-7.532 -30.179 0.864 0.420
-7.770 -31.377 0.891 0.210
-7.734 -31.484 0.895 0.350
-7.660 -31.436 0.895 0.270
-7.579 -31.358 0.894 0.570
-7.475 -31.186 0.891 0.190
-7.489 -31.506 0.900 0.110
-7.962 -33.920 0.954 0.140
-7.778 -33.715 0.952 0.380
-7.702 -33.685 0.953 0.340
-7.569 -33.399 0.948 0.390
-7.578 -33.741 0.957 0.190
-7.609 -34.034 0.964 0.000
-8.101 -36.564 1.021 0.000
-8.105 -36.924 1.031 0.000
-8.104 -37.623 1.049 0.230
-8.006 -37.531 1.049 0.280
-7.897 -37.387 1.047 0.320
-7.837 -37.289 1.046 0.290
-7.737 -37.185 1.045 0.460
-7.686 -37.324 1.049 0.180
-7.606 -37.316 1.051 0.160
-7.570 -37.529 1.057 0.550
-8.860 -44.374 1.214 0.000
-8.856 -44.836 1.226 0.000
-8.837 -44.984 1.231 0.000
-8.766 -45.114 1.235 0.000
-8.703 -45.292 1.241 0.000
-8.640 -45.474 1.248 0.130
-8.562 -45.587 1.252 0.120
-8.486 -45.720 1.257 0.170
-8.400 -45.795 1.261 0.300
-8.378 -45.950 1.266 0.230
-8.308 -46.123 1.272 0.270
-8.238 -46.303 1.278 0.250
-8.164 -46.468 1.284 0.200
-8.095 -46.670 1.291 0.410
-8.021 -46.847 1.297 0.200
-7.944 -47.014 1.303 0.140
-8.651 -51.534 1.410 0.160
-8.571 -51.753 1.418 0.120
-8.485 -51.954 1.425 0.170
-8.399 -52.156 1.432 0.120
-8.315 -52.379 1.440 0.160
-8.227 -52.582 1.447 0.270
-8.208 -52.856 1.455 0.180
-8.119 -53.074 1.463 0.180
-8.034 -53.327 1.472 0.000
-7.931 -53.476 1.478 0.140
-8.151 -55.841 1.537 0.150
-8.024 -55.869 1.541 0.150
-8.015 -56.746 1.565 0.110
-8.132 -58.058 1.598 0.000
-8.117 -58.949 1.622 0.120
-8.537 -63.090 1.725 0.110
-8.366 -62.946 1.725 0.410
-8.202 -62.854 1.726 0.000
-8.175 -63.838 1.754 0.000
-8.219 -65.433 1.796 0.000
-8.359 -67.196 1.840 0.000
-8.314 -68.184 1.868 0.000
-8.373 -70.074 1.918 0.000
-9.419 -80.480 2.177 0.060
-6.557 -57.301 1.614 0.000
-8.968 -80.049 2.176 0.000
-8.739 -79.803 2.175 0.000
-8.690 -80.279 2.189 0.000
-8.709 -82.380 2.246 0.000
-8.758 -84.887 2.313 0.000
-8.724 -86.705 2.363 0.000
-5.964 -64.295 1.819 0.000
-5.867 -64.156 1.817 0.000
-5.677 -63.909 1.815 0.000
-5.473 -63.501 1.809 0.110
-5.267 -63.056 1.802 0.160
-5.082 -62.849 1.801 0.000
-4.893 -64.813 1.859 0.000
-4.677 -63.083 1.817 0.060
-4.487 -62.817 1.815 0.000
-4.683 -68.143 1.956 0.000
-4.165 -63.152 1.832 0.030
-3.941 -62.369 1.817 0.000
-3.746 -62.001 1.811 0.000
-3.723 -63.080 1.842 0.000
-3.550 -63.134 1.848 0.000
-3.397 -63.596 1.864 0.000
-3.205 -63.363 1.863 0.000
-2.903 -60.836 1.801 0.000
-2.712 -60.453 1.796 0.000
-2.528 -60.229 1.794 0.000
-2.404 -61.500 1.833 0.000
-2.303 -61.181 1.826 0.000
-2.117 -60.974 1.826 0.000
-1.564 -60.487 1.827 0.000
-1.433 -62.661 1.890 0.000
-1.288 -60.286 1.829 0.000
-0.734 -59.874 1.833 0.000
7.873 -45.408 1.434 0.000
7.914 -44.508 1.415 0.000
7.953 -43.633 1.396 0.000
7.965 -42.650 1.374 0.000
8.001 -41.821 1.357 0.000
8.023 -40.960 1.338 0.000
8.044 -40.120 1.319 0.000
7.996 -39.424 1.303 0.000
8.016 -38.635 1.285 0.000
8.041 -37.891 1.269 0.000
8.118 -36.603 1.243 0.340
8.258 -36.432 1.242 0.180
8.403 -36.286 1.243 0.360
8.473 -36.207 1.243 0.180
8.616 -36.051 1.243 0.360
8.760 -35.897 1.244 0.200
8.901 -35.735 1.244 0.000
8.160 -32.113 1.143 0.070
8.291 -31.977 1.144 0.140
9.215 -34.829 1.232 0.200
9.290 -34.767 1.233 0.000
9.434 -34.625 1.234 0.000
9.581 -34.487 1.234 0.000
9.743 -34.403 1.237 0.090
9.854 -34.136 1.234 0.170
10.112 -34.375 1.246 0.150
10.265 -34.249 1.248 0.000
8.032 -26.574 1.017 0.120
8.105 -26.327 1.013 0.220
8.115 -25.883 1.004 0.160
8.136 -25.481 0.995 0.430
8.148 -25.066 0.986 0.240
8.159 -24.656 0.978 0.260
8.173 -24.264 0.969 0.260
8.136 -23.939 0.961 0.280
8.145 -23.553 0.953 0.290
8.163 -23.196 0.946 0.260
8.178 -22.838 0.938 0.270
8.193 -22.491 0.931 0.280
8.207 -22.150 0.924 0.290
8.222 -21.816 0.917 0.290
8.188 -21.541 0.910 0.300
8.198 -21.211 0.903 0.310
8.210 -20.888 0.896 0.290
8.222 -20.574 0.890 0.290
8.234 -20.263 0.883 0.310
8.244 -19.959 0.877 0.290
8.252 -19.655 0.870 0.310
8.224 -19.429 0.865 0.310
8.239 -19.149 0.859 0.330
8.247 -18.858 0.853 0.320
8.258 -18.583 0.847 0.320
8.269 -18.312 0.842 0.320
8.278 -18.040 0.836 0.290
8.291 -17.784 0.831 0.320
8.266 -17.588 0.826 0.340
8.275 -17.335 0.821 0.340
8.286 -17.085 0.816 0.270
8.306 -16.859 0.811 0.450
8.309 -16.602 0.806 0.340
8.305 -16.338 0.800 0.200
8.315 -16.105 0.795 0.200
8.291 -15.933 0.791 0.210
8.294 -15.694 0.786 0.000
8.302 -15.468 0.781 0.000
8.311 -15.248 0.777 0.000
8.319 -15.029 0.772 0.000
8.321 -14.804 0.768 0.000
8.284 -14.627 0.763 0.000
8.292 -14.418 0.758 0.000
8.300 -14.212 0.754 0.000
8.313 -14.019 0.750 0.000
8.321 -13.820 0.746 0.000
8.324 -13.618 0.742 0.000
8.329 -13.419 0.738 0.000
8.320 -13.103 0.731 0.280
8.341 -12.939 0.728 0.260
8.351 -12.759 0.725 0.250
8.354 -12.570 0.721 0.180
8.366 -12.400 0.718 0.460
8.362 -12.209 0.714 0.250
8.406 -12.090 0.712 0.290
8.385 -11.969 0.709 0.210
8.434 -11.858 0.708 0.140
8.724 -12.077 0.722 0.190
8.733 -11.911 0.718 0.190
8.837 -11.869 0.721 0.270
10.647 -14.073 0.821 0.210
10.735 -13.975 0.821 0.160
10.795 -13.948 0.823 0.440
9.278 -11.816 0.733 0.230
9.281 -11.641 0.729 0.160
9.388 -11.596 0.731 0.290
9.537 -11.604 0.736 0.420
9.609 -11.514 0.736 0.280
9.684 -11.427 0.737 0.420
9.709 -11.369 0.736 0.000
9.745 -11.239 0.735 0.160
8.380 -9.526 0.658 0.180
8.401 -9.404 0.656 0.270
8.408 -9.268 0.654 0.310
8.421 -9.140 0.651 0.300
8.400 -9.047 0.649 0.310
8.409 -8.918 0.647 0.320
8.416 -8.788 0.644 0.310
8.419 -8.656 0.641 0.310
8.423 -8.526 0.639 0.230
8.466 -8.437 0.638 0.360
8.535 -8.373 0.639 0.480
8.554 -8.327 0.639 0.310
8.598 -8.238 0.638 0.270
8.625 -8.134 0.637 0.310
8.637 -8.017 0.635 0.550
8.636 -7.888 0.633 0.330
8.649 -7.651 0.628 0.460
8.629 -7.573 0.626 0.220
8.640 -7.459 0.624 0.320
8.610 -7.314 0.620 0.220
8.642 -7.222 0.619 0.220
8.641 -7.105 0.617 0.260
8.582 -6.827 0.610 0.570
8.634 -6.810 0.611 0.190
8.638 -6.590 0.607 0.440
8.581 -6.328 0.600 0.380
8.648 -6.162 0.599 0.340
8.575 -6.057 0.594 0.170
8.637 -5.996 0.595 0.170
8.666 -5.911 0.594 0.150
8.443 -5.660 0.582 0.280
8.449 -5.564 0.581 0.360
8.454 -5.469 0.579 0.320
8.458 -5.374 0.577 0.330
8.448 -5.319 0.576 0.390
8.451 -5.223 0.574 0.270
8.458 -5.134 0.573 0.380
8.461 -5.040 0.571 0.300
8.470 -4.952 0.569 0.370
8.478 -4.863 0.568 0.390
8.486 -4.777 0.567 0.330
8.473 -4.725 0.565 0.260
8.478 -4.636 0.564 0.300
8.526 -4.573 0.564 0.410
8.547 -4.494 0.563 0.320
8.489 -4.376 0.559 0.290
8.769 -4.429 0.569 0.320
9.296 -4.598 0.589 0.360
9.339 -4.572 0.590 0.380
9.403 -4.508 0.590 0.380
9.471 -4.447 0.591 0.370
9.528 -4.378 0.592 0.380
9.592 -4.314 0.593 0.370
9.660 -4.252 0.594 0.380
9.718 -4.183 0.594 0.380
9.764 -4.156 0.595 0.370
9.824 -4.088 0.596 0.390
9.889 -4.023 0.597 0.360
9.952 -3.955 0.597 0.370
10.019 -3.889 0.598 0.420
10.085 -3.822 0.599 0.330
10.148 -3.755 0.600 0.380
10.189 -3.724 0.601 0.390
10.258 -3.657 0.602 0.380
10.326 -3.590 0.603 0.380
10.390 -3.521 0.603 0.380
10.454 -3.451 0.604 0.380
10.527 -3.384 0.605 0.330
10.596 -3.315 0.606 0.470
10.636 -3.282 0.607 0.390
10.703 -3.212 0.608 0.290
10.782 -3.145 0.609 0.320
10.839 -3.071 0.610 0.400
10.911 -3.001 0.611 0.370
10.979 -2.929 0.611 0.280
11.052 -2.859 0.613 0.210
11.016 -2.806 0.610 0.570
11.149 -2.749 0.614 0.110
8.508 -2.040 0.517 0.340
8.516 -1.974 0.516 0.300
8.525 -1.909 0.515 0.390
8.522 -1.842 0.514 0.360
8.526 -1.777 0.513 0.320
8.517 -1.742 0.512 0.360
8.518 -1.678 0.511 0.340
8.523 -1.614 0.510 0.340
8.528 -1.550 0.509 0.370
8.528 -1.487 0.508 0.370
8.533 -1.425 0.507 0.340
8.540 -1.362 0.506 0.340
8.522 -1.329 0.505 0.370
8.528 -1.268 0.504 0.340
8.537 -1.206 0.503 0.260
8.542 -1.146 0.502 0.530
8.528 -1.084 0.501 0.150
8.541 -1.025 0.500 0.360
8.543 -0.965 0.499 0.340
8.646 -0.946 0.502 0.340
8.536 -0.874 0.497 0.380
8.644 -0.826 0.500 0.330
8.543 -0.757 0.496 0.330
8.542 -0.699 0.495 0.340
8.943 -0.670 0.507 0.350
8.986 -0.642 0.508 0.410
9.678 -0.624 0.530 0.340
9.727 -0.562 0.531 0.390
9.787 -0.501 0.531 0.380
9.860 -0.439 0.533 0.340
9.914 -0.377 0.533 0.390
9.981 -0.315 0.535 0.340
8.576 -0.220 0.488 0.220
8.542 -0.192 0.486 0.630
8.561 -0.137 0.486 0.200
8.550 -0.083 0.485 0.560
8.546 -0.029 0.484 0.240
8.564 0.024 0.484 0.300
8.573 0.078 0.483 0.640
8.558 0.131 0.482 0.210
8.551 0.157 0.481 0.350
8.549 0.209 0.480 0.380
8.569 0.262 0.480 0.270
8.561 0.314 0.479 0.520
8.569 0.366 0.478 0.280
8.560 0.416 0.477 0.580
10.923 0.606 0.550 0.360
10.995 0.643 0.552 0.190
8.573 0.544 0.476 0.620
8.557 0.593 0.474 0.210
8.564 0.643 0.474 0.260
8.576 0.694 0.473 0.220
8.568 0.743 0.472 0.540
8.569 0.792 0.472 0.410
8.556 0.816 0.471 0.320
8.575 0.866 0.471 0.320
8.568 0.913 0.470 0.520
8.571 0.962 0.469 0.280
8.586 1.012 0.469 0.330
8.575 1.058 0.468 0.530
8.577 1.105 0.467 0.170
8.565 1.128 0.466 0.610
12.008 1.661 0.569 0.290
12.080 1.737 0.570 0.280
12.141 1.811 0.571 0.460
12.138 1.876 0.570 0.320
12.131 1.940 0.569 0.450
16.537 2.745 0.698 0.300
16.784 2.832 0.705 0.000
14.515 2.521 0.637 0.000
16.732 2.999 0.701 0.000
16.766 3.093 0.701 0.130
8.566 1.609 0.459 0.120
8.583 1.656 0.459 0.380
8.588 1.702 0.459 0.340
8.572 1.720 0.458 0.380
8.570 1.764 0.457 0.360
8.579 1.810 0.457 0.350
8.577 1.853 0.456 0.350
8.587 1.899 0.456 0.360
8.585 1.941 0.455 0.350
8.593 1.985 0.455 0.360
8.586 2.005 0.455 0.360
8.591 2.049 0.454 0.360
8.589 2.091 0.453 0.360
8.584 2.132 0.453 0.360
8.588 2.175 0.452 0.360
8.594 2.219 0.452 0.340
8.602 2.262 0.451 0.350
8.593 2.281 0.451 0.350
8.585 2.320 0.450 0.330
8.587 2.362 0.450 0.350
8.593 2.404 0.449 0.330
8.592 2.445 0.449 0.380
8.595 2.487 0.448 0.360
8.597 2.527 0.448 0.310
8.595 2.547 0.447 0.410
8.619 2.594 0.448 0.340
8.674 2.651 0.449 0.290
8.731 2.710 0.450 0.350
8.781 2.766 0.451 0.350
8.842 2.826 0.452 0.290
8.902 2.886 0.453 0.360
8.948 2.922 0.454 0.300
9.007 2.982 0.455 0.360
9.067 3.043 0.456 0.350
9.126 3.104 0.457 0.310
9.187 3.166 0.458 0.370
9.253 3.231 0.460 0.340
9.307 3.291 0.461 0.320
9.357 3.330 0.462 0.380
9.425 3.396 0.463 0.340
9.489 3.461 0.464 0.290
9.552 3.526 0.465 0.230
9.634 3.599 0.467 0.550
9.641 3.644 0.467 0.140
9.666 3.695 0.467 0.350
9.791 3.786 0.470 0.120
9.858 3.833 0.471 0.370
9.917 3.899 0.472 0.110
9.898 3.934 0.471 0.180
10.068 4.045 0.475 0.000
12.797 5.204 0.547 0.000
12.817 5.266 0.547 0.000
12.793 5.310 0.546 0.000
12.789 5.336 0.545 0.000
12.788 5.389 0.545 0.000
12.816 5.454 0.545 0.000
12.791 5.497 0.543 0.000
12.817 5.561 0.544 0.000
12.805 5.609 0.543 0.000
12.799 5.659 0.542 0.000
12.788 5.680 0.541 0.000
12.793 5.735 0.541 0.000
12.790 5.786 0.540 0.000
12.794 5.840 0.540 0.070
12.798 5.894 0.539 0.080
12.796 5.945 0.539 0.090
12.798 5.997 0.538 0.080
12.786 6.017 0.538 0.080
12.786 6.069 0.537 0.090
12.801 6.127 0.537 0.200
12.320 5.994 0.524 0.330
12.320 6.042 0.523 0.360
12.320 6.091 0.523 0.380
12.319 6.115 0.522 0.390
12.324 6.165 0.522 0.340
12.318 6.211 0.521 0.430
12.291 6.245 0.520 0.380
12.381 6.339 0.522 0.290
12.463 6.429 0.523 0.300
12.565 6.531 0.526 0.370
12.641 6.595 0.527 0.290
12.754 6.703 0.530 0.360
12.848 6.803 0.532 0.290
12.957 6.910 0.534 0.370
13.058 7.014 0.536 0.320
13.168 7.123 0.538 0.330
13.270 7.229 0.540 0.340
13.369 7.308 0.542 0.300
13.487 7.424 0.545 0.320
13.568 7.520 0.546 0.160
13.689 7.639 0.549 0.160
13.811 7.759 0.552 0.270
13.918 7.871 0.554 0.290
14.029 7.987 0.556 0.320
14.141 8.077 0.559 0.300
14.265 8.201 0.561 0.300
14.384 8.323 0.564 0.310
14.510 8.450 0.566 0.310
14.627 8.572 0.569 0.330
14.747 8.696 0.571 0.310
14.898 8.840 0.574 0.340
15.013 8.936 0.577 0.290
15.153 9.075 0.580 0.340
15.283 9.209 0.583 0.310
15.416 9.345 0.585 0.280
15.550 9.483 0.588 0.300
15.696 9.629 0.591 0.340
15.824 9.765 0.594 0.330
15.956 9.875 0.597 0.320
16.114 10.031 0.600 0.320
16.275 10.190 0.604 0.290
16.424 10.342 0.607 0.270
16.561 10.488 0.610 0.290
16.710 10.642 0.613 0.260
16.880 10.810 0.617 0.180
17.030 10.967 0.620 0.490
17.357 11.209 0.628 0.000
17.714 11.503 0.636 0.000
17.881 11.674 0.639 0.000
18.065 11.858 0.643 0.000
18.185 12.001 0.646 0.000
18.382 12.195 0.650 0.000
18.614 12.415 0.655 0.000
18.766 12.549 0.658 0.000
18.968 12.750 0.663 0.000
19.164 12.949 0.667 0.000
19.361 13.150 0.671 0.000
19.584 13.369 0.676 0.000
19.776 13.569 0.680 0.000
19.992 13.786 0.685 0.000
20.187 13.956 0.689 0.000
20.403 14.175 0.694 0.000
20.633 14.406 0.699 0.000
20.868 14.642 0.704 0.000
21.087 14.868 0.709 0.000
21.335 15.116 0.714 0.000
21.577 15.361 0.720 0.000
21.792 15.552 0.724 0.000
22.051 15.812 0.730 0.000
22.293 16.061 0.735 0.000
22.544 16.319 0.741 0.000
22.799 16.581 0.746 0.000
11.577 8.484 0.481 0.270
11.563 8.494 0.481 0.290
11.569 8.537 0.481 0.270
11.563 8.571 0.480 0.300
11.570 8.615 0.480 0.290
11.573 8.656 0.480 0.310
11.565 8.689 0.480 0.290
11.566 8.728 0.479 0.300
11.565 8.746 0.479 0.290
11.554 8.776 0.479 0.180
11.565 8.823 0.479 0.500
11.556 8.855 0.479 0.180
11.564 8.899 0.479 0.150
11.557 8.932 0.478 0.360
11.567 8.978 0.478 0.190
11.561 8.992 0.478 0.360
11.563 9.032 0.478 0.190
11.563 9.070 0.478 0.360
11.563 9.108 0.477 0.180
11.557 9.141 0.477 0.360
11.561 9.182 0.477 0.180
11.561 9.220 0.477 0.360
11.550 9.230 0.477 0.180
11.564 9.279 0.477 0.360
11.565 9.317 0.477 0.180
11.564 9.354 0.476 0.360
11.557 9.386 0.476 0.220
11.566 9.431 0.476 0.210
11.567 9.469 0.476 0.370
11.567 9.507 0.476 0.190
11.562 9.521 0.476 0.370
11.569 9.565 0.476 0.190
11.573 9.605 0.476 0.380
11.569 9.639 0.475 0.200
11.575 9.682 0.475 0.380
11.572 9.717 0.475 0.230
11.566 9.749 0.475 0.200
11.569 9.771 0.475 0.380
11.575 9.813 0.475 0.210
11.568 9.844 0.475 0.250
11.576 9.888 0.475 0.210
11.573 9.923 0.474 0.230
11.564 9.952 0.474 0.180
11.569 9.993 0.474 0.120
11.566 10.009 0.474 0.180
11.567 10.047 0.474 0.120
11.561 10.079 0.474 0.180
11.568 10.122 0.474 0.120
11.572 10.162 0.474 0.170
11.571 10.198 0.474 0.120
11.575 10.238 0.474 0.170
11.569 10.251 0.473 0.120
11.575 10.294 0.473 0.170
11.579 10.334 0.473 0.290
11.575 10.367 0.473 0.200
11.575 10.404 0.473 0.180
11.581 10.446 0.473 0.210
11.588 10.489 0.473 0.190
11.588 10.507 0.473 0.210
11.579 10.536 0.473 0.190
11.580 10.573 0.473 0.210
11.579 10.609 0.473 0.180
11.584 10.650 0.473 0.210
11.597 10.699 0.473 0.180
11.588 10.727 0.473 0.330
11.603 10.760 0.473 0.200
11.594 10.788 0.473 0.330
11.600 10.830 0.473 0.190
11.591 10.858 0.473 0.320
11.581 10.885 0.472 0.200
11.587 10.927 0.473 0.200
11.590 10.968 0.473 0.270
11.601 10.996 0.473 0.240
11.609 11.041 0.473 0.290
11.611 11.079 0.473 0.270
11.596 11.101 0.473 0.270
11.596 11.138 0.473 0.300
11.599 11.177 0.473 0.300
11.599 11.214 0.473 0.290
11.607 11.240 0.473 0.320
11.610 11.279 0.473 0.300
11.609 11.315 0.473 0.290
11.592 11.334 0.472 0.170
11.589 11.368 0.472 0.180
9.424 9.269 0.423 0.650
9.399 9.274 0.422 0.270
11.324 11.214 0.466 0.250
11.315 11.223 0.466 0.320
11.317 11.260 0.466 0.300
11.315 11.294 0.466 0.340
9.431 9.468 0.423 0.000
11.283 11.386 0.465 0.250
11.276 11.414 0.465 0.340
11.280 11.454 0.465 0.390
11.277 11.486 0.465 0.310
11.280 11.525 0.465 0.290
11.298 11.579 0.466 0.430
11.269 11.584 0.465 0.270
11.286 11.620 0.465 0.110
11.295 11.664 0.466 0.320
11.290 11.695 0.466 0.380
11.290 11.730 0.466 0.320
11.305 11.781 0.466 0.370
11.313 11.825 0.466 0.320
11.322 11.871 0.466 0.320
11.326 11.910 0.467 0.360
11.339 11.942 0.467 0.310
11.346 11.986 0.467 0.360
11.356 12.033 0.467 0.300
11.364 12.077 0.468 0.360
11.383 12.133 0.468 0.290
11.397 12.184 0.468 0.250
11.634 12.475 0.474 0.190
11.413 12.255 0.469 0.160
11.434 12.314 0.469 0.180
11.455 12.373 0.470 0.330
11.464 12.419 0.470 0.340
11.495 12.489 0.471 0.340
11.508 12.539 0.471 0.330
11.532 12.602 0.472 0.330
11.557 12.648 0.473 0.300
11.577 12.707 0.473 0.300
11.609 12.779 0.474 0.340
11.633 12.842 0.475 0.300
11.667 12.917 0.476 0.330
11.707 12.998 0.477 0.320
11.749 13.082 0.478 0.290
11.786 13.142 0.479 0.350
11.780 13.173 0.478 0.210
11.805 13.239 0.479 0.450
11.791 13.261 0.479 0.300
11.776 13.281 0.479 0.210
11.783 13.327 0.479 0.330
11.776 13.357 0.479 0.330
11.780 13.380 0.479 0.320
11.793 13.433 0.479 0.380
11.781 13.457 0.479 0.310
11.776 13.489 0.479 0.320
11.788 13.540 0.480 0.360
11.785 13.575 0.480 0.300
11.779 13.606 0.480 0.360
11.802 13.651 0.480 0.320
11.785 13.671 0.480 0.330
11.785 13.709 0.480 0.320
11.801 13.766 0.481 0.350
11.791 13.792 0.481 0.320
11.786 13.824 0.481 0.190
11.790 13.867 0.481 0.460
11.796 13.893 0.481 0.180
11.801 13.938 0.481 0.320
11.808 13.984 0.482 0.290
11.794 14.006 0.482 0.180
11.789 14.038 0.482 0.460
11.795 14.084 0.482 0.250
11.788 14.114 0.482 0.250
11.788 14.153 0.482 0.210
11.800 14.186 0.483 0.350
11.810 14.237 0.483 0.200
11.793 14.255 0.483 0.340
11.809 14.313 0.483 0.200
9.456 11.488 0.429 0.090
9.454 11.516 0.429 0.160
9.465 11.561 0.429 0.280
9.459 11.569 0.429 0.110
9.451 11.590 0.429 0.160
9.458 11.630 0.429 0.120
9.459 11.663 0.429 0.170
9.463 11.699 0.430 0.210
9.462 11.729 0.430 0.190
9.449 11.745 0.430 0.170
9.461 11.775 0.430 0.410
9.461 11.807 0.430 0.250
9.458 11.835 0.430 0.260
9.460 11.869 0.431 0.270
9.476 11.921 0.431 0.250
9.454 11.925 0.431 0.170
9.454 11.957 0.431 0.310
9.466 11.988 0.431 0.480
9.518 12.086 0.433 0.390
10.161 12.938 0.448 0.270
10.183 13.001 0.449 0.250
10.151 12.994 0.448 0.180
10.169 13.052 0.449 0.440
10.168 13.085 0.449 0.250
10.180 13.118 0.450 0.240
10.171 13.141 0.450 0.170
10.185 13.194 0.450 0.430
10.169 13.208 0.450 0.250
10.162 13.234 0.450 0.160
10.179 13.291 0.451 0.420
10.160 13.302 0.451 0.250
10.166 13.345 0.451 0.190
10.182 13.384 0.451 0.410
10.179 13.415 0.452 0.240
10.171 13.440 0.452 0.180
10.180 13.487 0.452 0.410
10.169 13.508 0.452 0.230
10.172 13.547 0.452 0.190
10.186 13.601 0.453 0.390
10.192 13.627 0.453 0.180
10.177 13.643 0.453 0.360
10.185 13.690 0.454 0.190
10.174 13.711 0.454 0.350
10.189 13.767 0.454 0.200
10.182 13.793 0.454 0.350
10.191 13.842 0.455 0.190
10.172 13.834 0.455 0.000
10.144 13.832 0.454 0.000
10.128 13.846 0.454 0.000
10.130 13.885 0.454 0.000
10.172 14.015 0.456 0.270
10.187 14.073 0.457 0.270
10.187 14.091 0.457 0.270
10.188 14.129 0.457 0.270
10.190 14.169 0.457 0.250
10.194 14.212 0.458 0.250
10.185 14.236 0.458 0.240
10.178 14.263 0.458 0.240
10.180 14.303 0.458 0.100
10.194 14.342 0.459 0.160
10.179 14.358 0.459 0.100
10.195 14.418 0.460 0.160
10.186 14.443 0.460 0.100
10.187 14.482 0.460 0.150
10.186 14.518 0.460 0.090
10.182 14.550 0.461 0.150
10.192 14.584 0.461 0.100
10.188 14.617 0.461 0.000
10.187 14.654 0.462 0.000
10.191 14.698 0.462 0.000
10.188 14.732 0.462 0.000
10.190 14.773 0.463 0.000
10.210 14.841 0.464 0.000
10.192 14.834 0.463 0.000
10.219 14.913 0.464 0.000
10.215 14.946 0.465 0.000
10.194 14.954 0.465 0.000
10.217 15.027 0.466 0.000
10.191 15.028 0.465 0.000
10.194 15.072 0.466 0.000
10.193 15.110 0.466 0.000
10.186 15.119 0.466 0.000
9.635 14.584 0.455 0.000
9.098 14.044 0.444 0.000
9.042 13.995 0.443 0.000
8.958 13.901 0.441 0.000
8.904 13.854 0.440 0.070
8.904 13.891 0.441 0.140
8.905 13.911 0.441 0.090
8.909 13.953 0.441 0.000
8.895 13.968 0.442 0.000
8.903 14.018 0.442 0.000
8.906 14.060 0.443 0.000
8.903 14.093 0.443 0.000
8.930 14.174 0.444 0.000
8.913 14.166 0.444 0.000
8.917 14.210 0.444 0.000
8.907 14.232 0.445 0.000
8.904 14.265 0.445 0.000
8.911 14.315 0.446 0.000
8.910 14.351 0.446 0.000
8.913 14.395 0.447 0.000
8.927 14.437 0.447 0.000
8.916 14.458 0.447 0.000
8.919 14.502 0.448 0.000
8.918 14.539 0.448 0.000
8.916 14.577 0.449 0.000
8.907 14.601 0.449 0.000
8.918 14.659 0.450 0.000
8.908 14.682 0.450 0.000
8.927 14.734 0.451 0.000
8.916 14.755 0.451 0.000
8.924 14.809 0.452 0.000
8.929 14.858 0.452 0.000
8.918 14.880 0.453 0.000
8.923 14.929 0.453 0.000
8.928 14.958 0.454 0.000
8.928 14.998 0.454 0.000
8.922 15.029 0.455 0.000
8.925 15.076 0.455 0.000
8.922 15.113 0.456 0.000
8.932 15.171 0.456 0.000
8.926 15.203 0.457 0.000
8.931 15.232 0.457 0.000
8.926 15.266 0.458 0.000
8.930 15.315 0.458 0.000
8.924 15.348 0.459 0.000
8.924 15.390 0.459 0.000
8.929 15.442 0.460 0.000
8.928 15.483 0.461 0.000
8.927 15.503 0.461 0.000
8.937 15.564 0.462 0.000
8.935 15.604 0.462 0.000
8.921 15.623 0.462 0.000
8.935 15.692 0.463 0.000
8.933 15.732 0.464 0.000
8.932 15.775 0.465 0.000
8.937 15.829 0.465 0.000
8.935 15.850 0.466 0.000
8.938 15.900 0.466 0.000
8.946 15.960 0.467 0.000
8.938 15.991 0.468 0.000
8.940 16.040 0.468 0.000
8.941 16.088 0.469 0.000
8.935 16.124 0.469 0.000
8.961 16.194 0.471 0.000
8.949 16.219 0.471 0.000
8.948 16.264 0.472 0.000
8.947 16.309 0.472 0.000
8.964 16.387 0.473 0.000
8.945 16.400 0.473 0.000
8.955 16.466 0.474 0.000
8.969 16.516 0.475 0.000
8.956 16.541 0.476 0.000
8.972 16.618 0.477 0.000
8.954 16.634 0.477 0.000
8.957 16.688 0.478 0.000
8.949 16.723 0.478 0.000
8.956 16.786 0.479 0.000
8.985 16.865 0.480 0.000
8.981 16.907 0.481 0.000
8.980 16.956 0.482 0.000
8.964 16.976 0.482 0.000
8.964 17.027 0.483 0.000
8.972 17.094 0.484 0.000
8.972 17.147 0.485 0.000
8.982 17.192 0.485 0.000
8.979 17.239 0.486 0.000
8.977 17.287 0.487 0.000
8.989 17.362 0.488 0.000
8.991 17.420 0.489 0.000
8.975 17.442 0.489 0.000
8.979 17.503 0.490 0.000
8.989 17.549 0.491 0.000
8.998 17.621 0.492 0.000
8.989 17.658 0.493 0.000
8.989 17.713 0.494 0.000
9.012 17.813 0.495 0.000
9.000 17.845 0.496 0.060
9.003 17.935 0.497 0.330
8.998 17.981 0.498 0.320
8.997 18.035 0.499 0.460
9.007 18.113 0.500 0.260
8.993 18.142 0.500 0.590
8.984 18.181 0.501 0.370
10.576 21.480 0.554 0.310
10.536 21.433 0.554 0.370
10.474 21.376 0.553 0.300
10.413 21.319 0.552 0.350
10.351 21.260 0.551 0.340
10.288 21.199 0.550 0.340
10.228 21.144 0.549 0.350
10.167 21.087 0.548 0.290
10.124 21.032 0.547 0.370
10.064 20.976 0.546 0.300
9.996 20.903 0.545 0.290
9.942 20.858 0.545 0.490
9.826 20.752 0.543 0.220
9.764 20.690 0.542 0.430
9.723 20.637 0.541 0.360
9.661 20.574 0.540 0.450
9.609 20.533 0.540 0.380
9.554 20.484 0.539 0.380
9.488 20.412 0.538 0.480
9.442 20.382 0.537 0.300
9.374 20.304 0.536 0.480
9.331 20.280 0.536 0.290
9.281 20.206 0.535 0.480
9.235 20.176 0.534 0.300
9.170 20.103 0.533 0.490
9.124 20.072 0.533 0.300
9.058 19.996 0.532 0.480
9.020 19.982 0.532 0.410
9.023 20.059 0.533 0.360
9.036 20.124 0.534 0.430
9.039 20.202 0.535 0.360
12.139 27.242 0.650 0.380
12.134 27.328 0.651 0.310
12.132 27.422 0.653 0.610
9.785 22.190 0.568 0.280
8.667 19.720 0.528 0.140
8.647 19.711 0.528 0.450
8.585 19.641 0.527 0.250
8.532 19.591 0.526 0.390
8.472 19.525 0.525 0.000
8.371 19.435 0.524 0.200
8.325 19.401 0.524 0.260
8.224 19.201 0.521 0.360
8.182 19.248 0.522 0.320
8.138 19.216 0.521 0.340
8.081 19.154 0.520 0.350
8.031 19.109 0.520 0.350
7.981 19.063 0.519 0.350
7.948 19.021 0.519 0.300
7.899 18.976 0.518 0.370
7.844 18.918 0.517 0.330
7.798 18.880 0.517 0.360
7.752 18.842 0.516 0.320
7.701 18.792 0.516 0.400
7.644 18.728 0.515 0.340
7.636 18.746 0.515 0.320
7.635 18.818 0.517 0.340
12.179 30.166 0.703 0.210
12.166 30.256 0.705 0.350
12.158 30.359 0.707 0.410
12.156 30.481 0.709 0.340
12.151 30.594 0.711 0.400
12.178 30.726 0.714 0.380
12.168 30.828 0.716 0.370
12.174 30.973 0.718 0.380
12.165 31.079 0.720 0.380
12.163 31.205 0.723 0.370
12.161 31.332 0.725 0.390
12.159 31.461 0.728 0.380
12.187 31.601 0.730 0.360
12.180 31.722 0.733 0.360
12.180 31.859 0.735 0.360
12.176 31.987 0.738 0.360
12.171 32.114 0.740 0.360
12.169 32.251 0.743 0.360
12.162 32.375 0.745 0.390
12.194 32.532 0.748 0.380
12.189 32.665 0.751 0.370
12.187 32.806 0.754 0.370
12.184 32.949 0.756 0.370
12.178 33.084 0.759 0.370
12.174 33.225 0.762 0.360
12.173 33.375 0.765 0.350
12.199 33.524 0.768 0.340
12.195 33.670 0.771 0.340
12.195 33.828 0.774 0.340
12.198 33.995 0.777 0.370
12.186 34.125 0.780 0.360
12.185 34.287 0.783 0.350
12.180 34.438 0.786 0.340
12.180 34.604 0.789 0.340
12.209 34.772 0.792 0.330
12.211 34.948 0.796 0.390
12.205 35.102 0.799 0.310
12.201 35.265 0.802 0.270
12.143 35.274 0.803 0.360
12.177 35.553 0.808 0.200
12.173 35.722 0.812 0.210
12.200 35.893 0.815 0.190
12.163 36.153 0.821 0.360
12.133 36.250 0.823 0.000
35.588 107.003 2.025 0.000
27.798 84.010 1.636 0.000
27.717 84.210 1.641 0.000
22.530 68.624 1.376 0.000
22.610 69.237 1.388 0.000
22.578 69.514 1.394 0.000
22.344 69.170 1.390 0.000
17.228 53.613 1.125 0.000
17.090 53.480 1.124 0.000
16.955 53.353 1.122 0.000
16.883 53.277 1.122 0.000
16.753 53.166 1.121 0.000
16.614 53.025 1.119 0.000
16.472 52.875 1.118 0.000
16.334 52.735 1.117 0.000
16.204 52.620 1.116 0.000
16.059 52.456 1.114 0.000
15.993 52.395 1.114 0.000
15.859 52.268 1.112 0.000
15.726 52.142 1.111 0.000
15.577 51.962 1.109 0.000
15.438 51.812 1.108 0.000
15.307 51.689 1.107 0.000
15.169 51.542 1.106 0.000
15.092 51.441 1.104 0.000
14.958 51.308 1.103 0.000
14.824 51.173 1.102 0.000
14.683 51.012 1.100 0.000
14.539 50.838 1.098 0.000
14.410 50.717 1.098 0.000
14.282 50.599 1.097 0.000
14.213 50.522 1.096 0.000
14.083 50.394 1.095 0.000
13.948 50.251 1.094 0.000
13.814 50.108 1.092 0.000
13.677 49.953 1.091 0.000
13.551 49.838 1.090 0.000
13.426 49.724 1.089 0.000
13.347 49.608 1.088 0.000
13.217 49.474 1.087 0.000
13.085 49.335 1.086 0.000
12.969 49.252 1.085 0.000
12.841 49.127 1.085 0.000
12.710 48.988 1.083 0.000
12.580 48.850 1.082 0.000
12.512 48.770 1.081 0.000
12.392 48.670 1.081 0.000
12.261 48.529 1.080 0.000
12.138 48.418 1.079 0.000
12.023 48.337 1.079 0.000
11.893 48.197 1.078 0.000
11.765 48.063 1.077 0.000
11.697 47.979 1.076 0.000
11.561 47.811 1.074 0.000
11.426 47.643 1.073 0.000
11.299 47.510 1.072 0.000
11.170 47.369 1.071 0.000
11.048 47.253 1.070 0.000
10.923 47.127 1.069 0.000
10.861 47.064 1.069 0.000
10.736 46.935 1.068 0.000
10.619 46.840 1.068 0.000
10.500 46.737 1.067 0.000
10.378 46.619 1.066 0.000
10.262 46.526 1.066 0.000
10.144 46.427 1.066 0.000
10.086 46.381 1.066 0.000
9.971 46.296 1.066 0.000
9.858 46.216 1.066 0.000
9.751 46.167 1.066 0.000
9.639 46.095 1.067 0.000
9.531 46.040 1.067 0.000
9.417 45.960 1.067 0.000
9.301 45.870 1.067 0.000
9.242 45.818 1.067 0.000
9.121 45.700 1.066 0.000
8.998 45.575 1.066 0.000
8.881 45.474 1.065 0.000
8.764 45.377 1.065 0.000
8.647 45.282 1.065 0.000
8.534 45.204 1.065 0.000
8.472 45.134 1.065 0.060
8.357 45.047 1.065 0.140
8.241 44.952 1.065 0.140
8.120 44.833 1.064 0.340
7.997 44.700 1.063 0.230
7.883 44.617 1.063 0.250
7.762 44.493 1.063 0.290
7.699 44.415 1.062 0.280
7.582 44.316 1.062 0.290
7.461 44.192 1.061 0.290
7.343 44.083 1.061 0.290
7.224 43.968 1.061 0.290
7.103 43.840 1.060 0.290
6.986 43.739 1.060 0.300
6.924 43.667 1.059 0.300
6.805 43.546 1.059 0.300
6.687 43.437 1.059 0.300
6.569 43.322 1.058 0.300
6.450 43.204 1.058 0.290
6.332 43.093 1.057 0.300
6.216 42.990 1.057 0.320
6.122 42.695 1.052 0.270
6.021 42.696 1.054 0.250
5.888 42.470 1.052 0.000
5.809 43.412 1.074 0.290
5.711 43.463 1.077 0.000
5.627 43.626 1.083 0.000
5.588 43.740 1.086 0.000
5.497 43.875 1.091 0.000
5.411 44.054 1.096 0.000
5.843 49.587 1.213 0.070
7.069 61.341 1.454 0.000
6.912 61.306 1.456 0.000
6.926 62.131 1.475 0.000
6.940 63.706 1.510 0.000
6.779 63.703 1.513 0.000
6.689 64.408 1.531 0.000
6.597 65.141 1.549 0.000
6.560 66.465 1.580 0.000
6.407 66.666 1.588 0.000
6.402 67.529 1.607 0.000
6.603 71.638 1.696 0.000
6.473 72.281 1.713 0.000
6.548 75.349 1.781 0.000
-2.729 68.066 1.821 0.000
-2.602 57.614 1.580 0.000
-2.501 51.520 1.439 0.000
-2.666 51.251 1.437 0.000
-2.831 50.994 1.435 0.000
-2.993 50.693 1.432 0.000
-3.156 50.423 1.430 0.000
-3.209 48.528 1.388 0.000
-3.134 46.159 1.332 0.000
-3.292 46.049 1.334 0.000
-3.470 46.183 1.341 0.000
-3.610 45.817 1.336 0.000
-3.761 45.599 1.335 0.000
-3.928 45.577 1.338 0.000
-4.065 45.207 1.333 0.000
-4.123 44.909 1.328 0.000
-4.288 44.855 1.331 0.000
-4.394 44.201 1.319 0.000
-4.891 47.351 1.402 0.000
-5.046 47.096 1.400 0.000
-5.200 46.830 1.398 0.000
-5.355 46.581 1.396 0.000
-5.427 46.405 1.394 0.000
-5.580 46.150 1.392 0.000
-4.787 38.364 1.196 0.000
-4.919 38.186 1.196 0.000
-5.041 37.931 1.193 0.000
-5.173 37.759 1.192 0.000
-5.300 37.554 1.191 0.000
-5.367 37.477 1.191 0.000
-5.531 37.530 1.196 0.000
-5.637 37.180 1.191 0.000
-5.793 37.171 1.195 0.000
-5.957 37.201 1.200 0.000
-6.307 38.339 1.234 0.000
-6.435 38.111 1.232 0.000
-6.351 37.132 1.208 0.000
-6.462 36.836 1.204 0.000
-6.650 36.960 1.212 0.000
-6.713 36.409 1.201 0.000
-6.894 36.492 1.208 0.060
-7.068 36.525 1.213 0.090
-7.220 36.448 1.215 0.090
-7.300 36.423 1.217 0.000
-7.472 36.429 1.222 0.000
-7.473 35.622 1.204 0.040
-7.593 35.392 1.202 0.080
-7.723 35.214 1.201 0.090
-7.870 35.106 1.202 0.130
-8.011 34.977 1.203 0.090
-8.051 34.775 1.200 0.000
-8.198 34.671 1.201 0.000
-8.308 34.406 1.198 0.130
-8.417 34.147 1.196 0.000
-8.564 34.040 1.197 0.000
-8.744 34.061 1.202 0.000
-8.914 34.033 1.206 0.000
-9.047 34.198 1.214 0.000
-9.387 34.788 1.236 0.000
-9.546 34.694 1.238 0.000
-10.595 37.762 1.335 0.000
-10.736 37.539 1.334 0.000
-10.859 37.253 1.331 0.000
-10.975 36.953 1.327 0.000
-11.433 37.433 1.350 0.000
-11.669 37.507 1.358 0.000
-11.907 37.582 1.367 0.000
-12.165 37.704 1.376 0.000
-12.404 37.760 1.384 0.000
-12.656 37.847 1.393 0.000
-12.821 38.002 1.401 0.000
-13.076 38.077 1.410 0.000
-13.330 38.142 1.418 0.000
-13.592 38.221 1.427 0.070
-12.756 34.079 1.313 0.800
-12.907 33.905 1.313 0.910
-12.990 33.834 1.314 0.910
-13.195 33.795 1.319 0.740
-13.306 33.515 1.316 0.000
-16.808 40.933 1.577 0.140
-16.969 40.648 1.575 0.090
-17.132 40.374 1.574 0.140
-17.202 40.208 1.572 0.090
-17.373 39.952 1.571 0.000
-17.534 39.677 1.570 0.000
-17.749 39.520 1.573 0.000
-18.111 39.684 1.586 0.000
-18.503 39.900 1.602 0.000
-18.846 39.997 1.614 0.000
-18.997 39.999 1.619 0.000
-19.393 40.189 1.634 0.000
-19.801 40.390 1.650 0.000
-20.209 40.580 1.666 0.000
-23.374 42.415 1.797 0.000
-23.677 42.306 1.803 0.000
-23.890 42.035 1.804 0.000
-25.273 42.795 1.860 0.000
-25.484 42.497 1.860 0.090
-6.445 10.479 0.620 0.300
-6.452 10.333 0.617 0.360
-6.462 10.193 0.615 0.380
-6.440 10.081 0.612 0.390
-6.446 9.940 0.609 0.400
-6.455 9.803 0.606 0.400
-6.461 9.665 0.604 0.390
-6.463 9.522 0.601 0.390
-6.472 9.393 0.598 0.350
-6.482 9.267 0.596 0.370
-6.461 9.169 0.593 0.410
-6.472 9.048 0.591 0.360
-6.481 8.923 0.589 0.450
-6.488 8.798 0.586 0.450
-6.494 8.674 0.584 0.270
-6.567 8.641 0.585 0.400
-6.624 8.583 0.586 0.340
-6.655 8.558 0.586 0.410
-6.714 8.504 0.587 0.390
-6.772 8.447 0.587 0.350
-6.827 8.387 0.588 0.410
-6.875 8.319 0.588 0.380
-6.893 8.214 0.586 0.310
-6.873 8.066 0.582 0.440
-6.890 8.025 0.582 0.360
-6.873 7.883 0.579 0.360
-6.863 7.753 0.576 0.340
-6.875 7.648 0.574 0.430
-6.886 7.544 0.572 0.350
-6.693 7.222 0.560 0.370
-6.739 7.160 0.560 0.360
-6.776 7.143 0.561 0.310
-6.819 7.077 0.560 0.450
-6.891 7.041 0.562 0.340
-6.926 6.968 0.562 0.360
-6.935 6.867 0.560 0.370
-6.947 6.773 0.558 0.290
-6.969 6.686 0.557 0.380
-6.957 6.623 0.555 0.450
-6.970 6.532 0.554 0.300
-6.959 6.418 0.551 0.340
-6.958 6.316 0.549 0.310
-6.946 6.206 0.547 0.440
-6.966 6.123 0.546 0.280
-6.967 6.027 0.544 0.430
-6.932 5.949 0.541 0.380
-6.946 5.864 0.540 0.450
-6.905 5.736 0.536 0.330
-6.937 5.668 0.536 0.370
-6.967 5.599 0.535 0.440
-6.824 5.393 0.527 0.200
-6.603 5.136 0.515 0.290
-6.731 5.191 0.520 0.390
-6.809 5.162 0.522 0.290
-7.018 5.230 0.529 0.400
-7.008 5.133 0.527 0.360
-7.016 5.051 0.526 0.420
-7.032 4.977 0.525 0.310
-6.972 4.850 0.521 0.440
-6.934 4.782 0.518 0.360
-6.976 4.727 0.518 0.290
-7.011 4.667 0.518 0.450
-7.028 4.595 0.517 0.390
-7.051 4.528 0.517 0.260
-7.099 4.477 0.517 0.180
-7.110 4.402 0.516 0.230
-7.086 4.349 0.514 0.180
-7.052 4.249 0.511 0.390
-6.648 3.935 0.493 0.280
-7.051 4.092 0.508 0.230
-6.999 3.986 0.505 0.370
-6.679 3.663 0.488 0.450
-6.665 3.620 0.487 0.220
-6.705 3.571 0.487 0.210
-6.836 3.569 0.492 0.200
-6.959 3.559 0.495 0.260
-6.690 3.356 0.483 0.260
-6.692 3.288 0.482 0.290
-6.690 3.221 0.480 0.310
-6.664 3.175 0.479 0.300
-6.664 3.108 0.477 0.270
-6.670 3.047 0.476 0.320
-6.670 2.981 0.475 0.350
-6.679 2.920 0.474 0.340
-6.684 2.860 0.473 0.300
-6.692 2.800 0.473 0.450
-6.836 2.826 0.478 0.230
-6.685 2.703 0.471 0.330
-6.685 2.641 0.469 0.340
-6.687 2.581 0.468 0.350
-6.688 2.520 0.467 0.320
-6.693 2.462 0.466 0.420
-7.002 2.511 0.477 0.250
-7.034 2.490 0.478 0.340
-7.047 2.433 0.477 0.360
-7.058 2.374 0.476 0.340
-7.063 2.315 0.475 0.380
-7.062 2.254 0.474 0.350
-7.068 2.196 0.473 0.320
-7.058 2.133 0.472 0.340
-7.057 2.102 0.471 0.390
-7.061 2.045 0.470 0.330
-7.050 1.983 0.469 0.300
-7.059 1.927 0.468 0.390
-7.079 1.875 0.468 0.320
-7.073 1.815 0.467 0.370
-7.074 1.759 0.466 0.340
-7.069 1.730 0.465 0.360
-7.070 1.674 0.464 0.360
-7.066 1.617 0.463 0.340
-7.082 1.565 0.463 0.360
-7.076 1.509 0.461 0.310
-7.086 1.457 0.461 0.390
-7.099 1.404 0.460 0.290
-7.082 1.375 0.459 0.360
-7.108 1.325 0.459 0.380
-7.109 1.273 0.458 0.310
-7.108 1.220 0.457 0.340
-7.128 1.170 0.457 0.410
-7.143 1.120 0.457 0.300
-7.152 1.069 0.456 0.360
-7.162 1.045 0.456 0.390
-7.169 0.994 0.456 0.300
-7.176 0.943 0.455 0.320
-7.201 0.896 0.455 0.500
-6.688 0.787 0.437 0.180
-6.703 0.742 0.436 0.380
-6.706 0.696 0.436 0.330
-6.700 0.672 0.435 0.400
-6.700 0.626 0.434 0.400
-6.702 0.579 0.433 0.400
-6.709 0.535 0.433 0.340
-6.702 0.489 0.432 0.400
-6.710 0.444 0.431 0.340
-6.717 0.400 0.431 0.410
-6.702 0.377 0.430 0.400
-6.709 0.333 0.430 0.390
-6.710 0.289 0.429 0.400
-6.708 0.245 0.428 0.400
-6.743 0.202 0.429 0.390
-6.781 0.160 0.429 0.370
-6.827 0.117 0.430 0.280
-6.855 0.095 0.430 0.570
-6.869 0.053 0.430 0.330
-6.865 0.009 0.429 0.270
-6.900 -0.034 0.430 0.370
-7.088 -0.080 0.435 0.300
-7.132 -0.125 0.436 0.320
-7.178 -0.170 0.437 0.300
-7.212 -0.193 0.437 0.200
-7.271 -0.239 0.438 0.400
-7.327 -0.286 0.440 0.190
-7.369 -0.331 0.440 0.320
-7.420 -0.378 0.441 0.190
-7.463 -0.425 0.442 0.170
-7.510 -0.473 0.442 0.100
-7.543 -0.497 0.443 0.000
-7.584 -0.544 0.444 0.000
-7.635 -0.592 0.445 0.000
-7.708 -0.643 0.446 0.000
-7.749 -0.691 0.447 0.000
-6.745 -0.674 0.415 0.180
-6.735 -0.692 0.414 0.340
-6.734 -0.729 0.414 0.390
-6.735 -0.767 0.413 0.340
-6.740 -0.805 0.413 0.310
-6.741 -0.843 0.412 0.520
-6.735 -0.879 0.411 0.320
-6.741 -0.917 0.411 0.370
-6.725 -0.934 0.410 0.300
-6.734 -0.972 0.410 0.360
-6.732 -1.007 0.409 0.310
-6.741 -1.045 0.409 0.360
-6.737 -1.080 0.409 0.320
-6.764 -1.121 0.409 0.310
-6.787 -1.161 0.409 0.420
-6.794 -1.180 0.409 0.310
-6.844 -1.225 0.410 0.310
-6.885 -1.269 0.411 0.350
-6.927 -1.312 0.411 0.260
-6.976 -1.358 0.412 0.380
-7.000 -1.399 0.412 0.320
-7.015 -1.438 0.412 0.280
-6.997 -1.452 0.411 0.290
-6.997 -1.488 0.411 0.280
-6.997 -1.523 0.410 0.290
-7.017 -1.563 0.411 0.310
-6.999 -1.594 0.410 0.260
-7.016 -1.633 0.410 0.310
-7.014 -1.667 0.409 0.300
-7.008 -1.683 0.409 0.300
-7.013 -1.719 0.408 0.270
-7.019 -1.755 0.408 0.300
-7.013 -1.788 0.407 0.300
-7.008 -1.820 0.407 0.320
-7.031 -1.861 0.407 0.270
-7.015 -1.890 0.406 0.300
-7.021 -1.908 0.406 0.300
-7.018 -1.941 0.405 0.300
-7.030 -1.978 0.405 0.280
-7.026 -2.010 0.405 0.300
-7.027 -2.043 0.404 0.300
-7.017 -2.074 0.404 0.300
-7.036 -2.112 0.404 0.300
-7.019 -2.124 0.403 0.300
-7.024 -2.157 0.403 0.300
-7.028 -2.191 0.402 0.290
-7.025 -2.223 0.402 0.320
-7.035 -2.258 0.402 0.250
-7.033 -2.289 0.401 0.290
-7.033 -2.322 0.401 0.290
-7.034 -2.338 0.401 0.290
-7.038 -2.371 0.400 0.300
-7.036 -2.402 0.400 0.290
-7.041 -2.435 0.400 0.290
-7.040 -2.466 0.399 0.300
-7.041 -2.498 0.399 0.300
-7.045 -2.531 0.399 0.270
-7.032 -2.542 0.398 0.300
-7.031 -2.572 0.398 0.290
-7.036 -2.605 0.398 0.290
-7.032 -2.634 0.397 0.310
-7.034 -2.666 0.397 0.260
-7.046 -2.701 0.397 0.290
-7.039 -2.729 0.396 0.290
-7.030 -2.740 0.396 0.290
-7.051 -2.779 0.396 0.280
-7.031 -2.801 0.395 0.280
-7.039 -2.834 0.395 0.290
-7.041 -2.865 0.395 0.290
-7.033 -2.891 0.394 0.310
-7.049 -2.927 0.394 0.250
-7.044 -2.940 0.394 0.290
-7.039 -2.967 0.393 0.290
-7.042 -2.998 0.393 0.290
-7.047 -3.030 0.393 0.320
-7.044 -3.058 0.393 0.250
-7.041 -3.085 0.392 0.290
-7.041 -3.114 0.392 0.300
-7.012 -3.116 0.391 0.270
-7.019 -3.148 0.391 0.290
-7.021 -3.177 0.390 0.290
-7.024 -3.207 0.390 0.300
-7.057 -3.251 0.391 0.290
-7.057 -3.280 0.390 0.300
-7.044 -3.302 0.390 0.250
-7.035 -3.311 0.389 0.320
-7.045 -3.344 0.389 0.340
-7.039 -3.370 0.389 0.300
-7.043 -3.400 0.389 0.280
-7.051 -3.432 0.389 0.380
-7.046 -3.457 0.388 0.230
-7.045 -3.484 0.388 0.360
-7.053 -3.502 0.388 0.220
-7.049 -3.528 0.388 0.320
-7.048 -3.555 0.387 0.230
-7.053 -3.585 0.387 0.420
-7.050 -3.611 0.387 0.250
-7.057 -3.642 0.387 0.290
-7.051 -3.666 0.386 0.200
-7.060 -3.684 0.386 0.460
-7.053 -3.708 0.386 0.310
-7.058 -3.737 0.386 0.300
-7.059 -3.765 0.386 0.290
-7.060 -3.792 0.385 0.290
-7.063 -3.821 0.385 0.250
-7.061 -3.847 0.385 0.290
-7.062 -3.860 0.385 0.290
-7.063 -3.888 0.385 0.290
-7.062 -3.914 0.384 0.290
-7.060 -3.940 0.384 0.290
-7.062 -3.967 0.384 0.290
-7.064 -3.994 0.384 0.290
-7.059 -4.018 0.383 0.290
-7.048 -4.025 0.383 0.300
-7.068 -4.062 0.383 0.270
-7.068 -4.089 0.383 0.270
-7.070 -4.116 0.383 0.280
-7.066 -4.139 0.382 0.290
-7.068 -4.167 0.382 0.290
-7.066 -4.191 0.382 0.290
-7.069 -4.206 0.382 0.270
-7.078 -4.237 0.382 0.270
-7.070 -4.258 0.381 0.290
-7.069 -4.283 0.381 0.300
-7.072 -4.310 0.381 0.290
-7.076 -4.339 0.381 0.290
-7.075 -4.363 0.381 0.280
-7.077 -4.377 0.381 0.270
-7.076 -4.402 0.380 0.300
-7.079 -4.429 0.380 0.300
-7.078 -4.454 0.380 0.300
-7.073 -4.476 0.380 0.300
-7.072 -4.501 0.380 0.300
-7.072 -4.513 0.379 0.260
-7.076 -4.541 0.379 0.290
-7.065 -4.559 0.379 0.310
-7.063 -4.582 0.379 0.000
-4.047 -2.628 0.306 0.150
-4.038 -2.637 0.306 0.180
-4.021 -2.639 0.305 0.200
-4.029 -2.652 0.305 0.000
-4.037 -2.671 0.305 0.120
-7.079 -4.729 0.378 0.260
-7.073 -4.750 0.378 0.310
-7.080 -4.779 0.378 0.290
-7.099 -4.817 0.378 0.270
-7.090 -4.835 0.378 0.290
-7.088 -4.846 0.378 0.290
-7.084 -4.867 0.377 0.290
-7.089 -4.895 0.377 0.290
-7.086 -4.917 0.377 0.300
-7.099 -4.951 0.377 0.260
-7.080 -4.962 0.377 0.270
-6.933 -4.882 0.373 0.320
-6.866 -4.846 0.371 0.240
-6.824 -4.839 0.370 0.330
-6.832 -4.868 0.370 0.320
-6.828 -4.889 0.370 0.340
-6.827 -4.911 0.370 0.320
-6.835 -4.940 0.370 0.320
-6.836 -4.965 0.370 0.340
-6.829 -4.971 0.369 0.270
-6.692 -4.893 0.366 0.000
-6.769 -4.973 0.368 0.110
-6.711 -4.952 0.366 0.110
-6.860 -5.086 0.370 0.000
-6.722 -5.005 0.366 0.130
-6.838 -5.126 0.369 0.390
-6.844 -5.154 0.369 0.380
-6.839 -5.173 0.369 0.370
-6.833 -5.191 0.368 0.360
-6.832 -5.213 0.368 0.370
-6.843 -5.244 0.368 0.380
-6.834 -5.260 0.368 0.300
-6.854 -5.286 0.368 0.550
-6.834 -5.293 0.368 0.300
-6.833 -5.315 0.368 0.210
-6.832 -5.337 0.368 0.370
