# .PCD v0.7 - Point Cloud Data file format
VERSION 0.7
FIELDS x y z
SIZE 4 4 4
TYPE F F F
COUNT 1 1 1
WIDTH 1788
HEIGHT 1
VIEWPOINT 0 0 0 1 0 0 0
POINTS 1788
DATA ascii
-53.036999 -14.446 2.0680001
-47.945 23.742001 2.0179999
77.133003 11.803 0.086000003
58.394001 -8.2810001 2.2030001
-18.931 12.528 0.278
-57.327999 4.6830001 -2.684
6.5359998 -11.403 0.248
-47.971001 -2.372 -16.719999
27.607 8.3649998 0.162
-31.292 -11.1 -1.674
42.463001 -8.5699997 1.674
-3.0829999 19.129 0.052999999
-6.1389999 5.1339998 -1.962
19.385 -1.54 -7.9130001
-36.001999 17.226 0.815
-67.892998 -2.6329999 -0.74699998
-24.924999 0.20999999 -2.0899999
-42.946999 -6.7919998 0.86900002
8.4209995 23.763 -0.91799998
-63.166 -21.002001 2.46
35.526001 0.108 -1.58
-2.579 -5.3499999 -1.543
53.443001 0.52200001 -1.506
-53.252998 -3.9630001 2.0150001
16.08 -7.1500001 0.80400002
-47.318001 6.0609999 -1.918
70.129997 -5.776 -0.78100002
-28.475 9.4840002 0.16
17.622 8.3850002 0.86900002
8.1280003 -1.839 -1.587
-15.699 3.5580001 -1.586
-65.755997 6.5250001 1.7130001
-56.561001 27.867001 1.941
26.421 -0.78299999 -1.6160001
-77.042 -2.5020001 -1.8049999
13.782 16.573 0.42500001
-45.541 6.158 -15.993
0.052999999 11.076 0.37599999
-21.995001 -7.8140001 -1.806
50.833 -8.1689997 -1.138
-33.887001 -3.3099999 -2.1400001
45.488998 -1.447 -1.55
6.046 16.047001 -1.994
0.77600002 26.341999 -0.48300001
53.555 7.7600002 1.696
33.679001 -7.527 -1.331
15.299 1.349 -1.686
-10.877 10.627 0.62599999
-60.244999 -2.6140001 -1.368
-47.619999 -1.485 -2.4909999
1.603 4.1900001 -1.976
61.179001 -1.482 1.89
-9.0760002 -1.535 -1.852
-46.68 -12.708 -0.80900002
-36.716999 10.159 1.497
34.542 8.0710001 1.409
78.988998 5.0840001 1.007
-68.004997 -24.736 -0.36500001
40.638 4.2919998 -1.848
-58.147999 -18.054001 -0.648
79.910004 -2.8789999 -0.42500001
21.686001 -5.1490002 -1.441
-30.105 3.8599999 -2.234
-17.933001 -2.3499999 -1.9170001
-5.4629998 13.476 -1.502
-54.245998 7.3470001 2.0599999
3.625 -6.1500001 -1.4680001
-42.307999 6.007 1.654
21.153 2.7309999 -1.7589999
2.3280001 20.743 -2.244
10.524 -7.2410002 -1.296
-7.8210001 -6.9829998 0.56400001
-70.720001 6.5619998 -1.284
-59.974998 6.5910001 2.2490001
-50.27 -7.9770002 -0.86199999
0.86299998 -10.831 0.241
73.575996 -8.665 2.714
57.080002 -3.9879999 -1.2869999
40.112999 8.9130001 1.599
-41.521999 16.875999 -0.147
74.281998 -3.1459999 1.902
10.181 3.1470001 -0.65399998
1.564 -1.124 -0.78200001
12.883 10.101 -1.005
-21.177 3.822 -0.75400001
30.705 2.4579999 -1.7029999
22.51 8.2519999 -1.28
11.595 -12.485 -0.75999999
-22.365999 8.9919996 -1.575
-15.489 8.9580002 -1.234
0.77100003 15.868 -1.562
-39.203999 -5.0760002 -2.243
-53.619999 -1.524 -2.49
-51.984001 4.1059999 -2.7449999
20.464001 -9.7530003 0.97600001
-11.184 5.8280001 -2.0020001
40.458 -1.465 -1.597
28.159 -5.46 -1.419
-66.098 3.651 -2.348
38.741001 -7.1570001 -1.3150001
6.0029998 11.797 0.65700001
-26.687 -8.7309999 -0.528
13.452 -3.233 -1.5700001
-28.193001 -3.4649999 -2.0780001
-43.995998 21.089001 0.361
48.438999 2.4200001 -1.666
50.356998 -3.2279999 -1.411
-4.973 9.1140003 0.56
-13.502 -2.1099999 -0.152
-7.573 17.919001 -1.001
45.959 -7.2589998 -1.285
6.204 19.809999 0.91100001
-37.748001 -0.58999997 -2.1329999
-73.188004 6.5279999 2.694
3.3640001 8.7980003 -1.976
-63.006001 -2.4089999 2.3410001
5.744 2.115 -1.773
17.969999 -2.457 -1.581
-41.889999 3.8929999 -2.4000001
-61.737999 -20.615 -1.8789999
14.897 5.9159999 -1.851
-48.556 -4.355 1.319
-24.148001 12.209 1.124
61.925999 -8.3520002 -0.67000002
-43.387001 -2.9949999 -2.256
-72.695 -2.5929999 -0.81400001
9.3800001 15.957 0.83499998
-2.0639999 7.2919998 -2.0769999
-17.783001 -6.7639999 -1.107
-5.527 0.898 -1.7869999
36.316002 4.296 -1.865
-36.534 5.8369999 1.46
30.496 -1.8200001 -1.524
-11.785 1.673 -1.882
54.977001 -8.3400002 -0.96100003
26.664 3.3559999 -1.779
-70.350998 -2.3610001 2.589
-22.042999 -2.7019999 -1.9809999
-49.644001 -12.023 1.936
-61.064999 6.2709999 -2.1619999
49.778999 7.928 0.12800001
30.296 -7.6739998 1.266
-8.2349997 8.8470001 -1.913
45.263 4.9910002 -1.822
-30.468 -0.18099999 -2.0439999
36.341 -8.6549997 1.472
-39.34 12.628 -0.12
3.0840001 -14.06 0.69599998
63.41 -4.7329998 1.956
-28.639 13.293 -0.61900002
57.377998 -2.227 2.151
-34.289001 1.132 -2.158
-10.449 -5.1360002 -1.586
3.381 12.798 -1.977
-0.37799999 22.716 0.027000001
-15.146 12.144 0.866
-6.1799998 -4.0450001 -1.5880001
0.36500001 -6.7870002 0.43900001
-2.6989999 3.4790001 -1.891
24.723 10.775 0.82300001
-25.636 3.9530001 -2.1830001
-39.511002 19.671 -1.7589999
-54.895 -15.683 -0.99199998
48.543999 -7.9809999 1.873
-48.668999 2.3069999 -2.552
11.636 14.015 -1.473
9.8430004 1.698 -4.0929999
21.461 -0.97000003 -1.646
-52.341 -4.967 -1.478
6.5879998 -7.085 0.53600001
71.146004 -9.5959997 0.094999999
-64.155998 -2.6340001 -1.141
-51.633999 -13.48 -1.187
-50.752998 -1.85 -0.19400001
77.523003 8.1990004 -0.40900001
76.575996 -8.7329998 -0.875
-18.893 8.0229998 -2.0769999
24.605 -7.2680001 -1.248
-74.330002 6.5450001 -1.36
4.763 -2.7780001 -0.75
-19.52 0.88 -1.967
5.0380001 5.6430001 -1.932
-33.882 5.1570001 -2.3239999
-45.215 -9.3809996 1.771
24.635 6.6539998 1.072
59.872002 -4.941 1.859
5.8179998 21.698999 -2.145
9.8649998 11.484 0.255
31.134001 8.2869997 0.53299999
-59.891998 -18.768999 2.3310001
-57.113998 -1.152 -2.3369999
-66.059998 -23.261999 2.1329999
-36.247002 13.706 1.091
12.151 -0.043000001 -1.664
-7.52 11.412 0.345
-15.55 0.124 -1.898
-2.0539999 13.564 -1.232
19.035 -7.4130001 -1.061
-8.4659996 2.615 -1.929
19.333 7.256 -1.8279999
-39.376999 5.9510002 -0.35299999
79.746002 -6.2670002 -0.42500001
-3.3440001 -2.0840001 -1.721
33.174 4.4759998 -0.66799998
-64.945 6.7779999 -2.701
2.914 18.17 -0.18099999
-56.715 6.8790002 -0.245
0.778 -4.2410002 -1.663
-0.95099998 1.0140001 -0.50099999
-15.192 -4.4660001 -1.745
-36.653999 7.73 -1.24
-69.962997 6.664 2.1400001
13.847 -8.5959997 -1.1059999
51.097 4.3280001 -1.773
-4.553 -6.994 0.491
2.7249999 23.722 -0.41800001
-53.648998 6.4720001 -1.204
5.98 8.5950003 0.56300002
23.989 -2.9289999 -1.58
61.839001 -3.2420001 -0.66299999
18.791 0.66500002 -1.647
31.532 -5.2550001 -1.402
33.585999 -2.3299999 -1.487
10.492 8.4350004 0.1
-44.206001 5.9359999 -2.036
16.177999 -4.993 -1.4630001
-57.428001 -16.910999 2.233
-50.979 -6.9510002 1.949
54.584999 -8.1809998 2.076
72.111 -3.4360001 -0.80599999
-39.548 1.929 -2.2460001
-21.878 12.379 -0.91399997
0.32600001 9.1739998 -2.003
-2.4560001 10.115 -1.0190001
41.616001 1.4349999 -1.648
6.2449999 22.954 1.0140001
-11.198 7.6259999 0.667
-46.018002 -3.0090001 -0.44100001
6.0689998 14.821 0.75099999
61.577 -8.3369999 2.3099999
22.410999 -7.4809999 1.008
7.9689999 4.6890001 -1.937
45.562 -7.934 1.773
-14.498 6.27 -2.0380001
42.750999 7.5450001 1.677
43.172001 -8.6379995 -1.205
-5.0890002 16.916 0.26199999
2.7880001 27.451 -2.335
6.0019999 10.305 -1.886
13.962 3.0050001 0.352
-67.374001 6.6170001 -0.74299997
-60.167999 -2.5539999 1.58
-48.397999 5.2820001 0.699
20.966999 9.7279997 0.73500001
-27.459999 1.666 -2.164
43.221001 -3.283 -1.467
2.921 11.544 0.61199999
28.76 -8.302 -1.128
9.434 -9.9300003 -1.229
-0.81 5.1240001 -0.46399999
-3.9649999 21.587 -1.155
14.659 8.585 0.67500001
2.4059999 14.349 0.25299999
0.53100002 12.6 -2.0020001
5.0279999 18.714001 -2.069
-48.623001 -10.276 -0.491
8.4639997 0.98199999 -1.705
-7.2210002 15.045 0.18099999
-24.656 -6.7950001 -0.93400002
-18.351 4.4000001 -2.118
-22.503 1.641 -2.016
-20.195 -5.5450001 -1.857
-10.878 -7.1149998 0.405
70.045998 -9.0319996 2.5969999
-54.702999 3.52 -2.549
23.93 2.4890001 -1.729
35.951 -5.9260001 -1.4170001
-74.903 -0.90600002 -0.84500003
58.306999 -1.503 -1.316
39.039001 -7.9749999 1.303
-1.851 16.889999 -0.96700001
50.793999 -6.5009999 1.375
11.846 4.9180002 -1.9119999
6.073 13.334 -1.599
-41.792999 -5.6760001 -1.6720001
36.098 -8.8059998 -1.228
-4.211 11.707 0.333
0.59299999 19.556999 -0.205
-15.922 -6.4380002 0.79000002
12.377 -7.2820001 0.69499999
15.554 -1.295 -1.627
7.869 -5.848 -1.432
1.574 6.8410001 -1.966
-11.82 -0.972 -1.875
5.8119998 -0.52700001 -1.6849999
33.300999 1.99 -1.683
-28.589001 -9.7770004 -2.0250001
-10.826 9.783 -1.867
-1.38 -3.934 0.32300001
-49.275002 -3.664 -1.377
44.411999 10.196 1.461
-42.949001 -4.2290001 0.34299999
-8.7790003 8.9949999 0.634
-43.911999 -8.8459997 -0.42199999
-13.781 4.6040001 -0.17399999
-44.591 -11.246 -1.268
-78.294998 6.6479998 -1.443
-31.319 -3.5480001 -2.1210001
47.390999 5.5019999 -0.463
-56.188999 -2.7939999 -0.583
18.796 -4.8839998 -1.4680001
74.209999 -8.8240004 0.090999998
-36.390999 -2.803 -2.0550001
-6.2379999 -6.6989999 -1.419
-6.4320002 -1.515 -1.796
57.494999 -8.3079996 -0.60900003
37.353001 1.994 -1.675
76.068001 -8.8190002 2.313
47.988998 7.4660001 1.851
-25.690001 -3.1789999 -2.0239999
-32.530998 2.9300001 -2.2060001
-24.302999 10.63 -0.81900001
38.362999 -2.839 -1.507
29.268 0.40599999 -1.608
22.194 7.2069998 0.99800003
-60.397999 -19.794001 0.108
16.872 9.8549995 -1.006
8.5749998 10.425 -1.6210001
-12.726 -4.098 -1.694
-57.354 6.7600002 2.1619999
-16.834 12.098 -0.96899998
6.1430001 17.351999 0.62800002
-2.092 -6.9860001 0.31900001
9.0150003 -7.6220002 0.60799998
-12.789 9.0679998 -0.58399999
-46.004002 22.302 1.613
20.466 -3.0569999 -0.83600003
-67.815002 -24.962 2.194
16.77 7.4850001 -1.837
11.996 14.674 0.85000002
-0.977 -1.419 -0.66900003
11.02 -3.1289999 -1.557
-3.527 5.5510001 -0.91900003
48.154999 -8.1549997 -0.81900001
2.5599999 25.040001 -2.427
-53.828999 -2.892 -0.219
-5.8899999 15.811 -1.775
21.410999 -7.5689998 -1.202
3.342 2.5639999 -1.848
-46.868 -13.031 1.545
31.812 0.15099999 -1.596
43.623001 3.29 -1.742
-32.500999 -1.38 -2.036
-58.691002 6.5890002 -2.4230001
57.589001 -5.4159999 2.165
-8.9799995 4.9029999 -2.073
-75.397003 6.8049998 1.359
13.131 2.234 -1.748
24.666 8.8599997 -0.63499999
-51.445 -2.3510001 -2.382
2.066 10.73 -1.9910001
1.857 21.502001 -0.097000003
-18.188 -4.5549998 -0.51899999
7.8759999 -8.2159996 -1.336
13.899 11.123 0.81099999
52.241001 -1.459 -1.4680001
-7.796 0.391 -1.831
-4.9809999 3.135 -1.8839999
2.6800001 -2.9489999 -1.7
-17.632 2.224 -1.983
-8.1739998 -5.4720001 -1.534
5.6869998 -5.1529999 -1.524
5.4710002 7.8839998 -1.936
7.8720002 12.713 -0.27399999
11.157 -10.828 0.73500001
2.7119999 -6.9330001 0.461
8.2510004 8.533 0.53500003
-6.0149999 8.9429998 -1.454
-16.385 5.3280001 -0.347
20.256001 9.2840004 -1.441
-48.893002 4.5570002 -2.573
-36.655998 11.828 -0.097999997
-12.835 3.6719999 -1.995
20.079 -7.414 0.93300003
59.84 -4.27 -0.63499999
-42.416 6.1560001 -0.69400001
-59.875999 6.5019999 -0.26899999
-15.601 -2.119 -1.924
25.915001 -5.461 -1.436
2.885 16.544001 -1.862
7.0180001 19.664 -1.7180001
59.734001 -8.3920002 -0.27000001
-61.014 -22.364 -0.70499998
74.258003 -3.0239999 -0.38
-40.575001 20.153999 0.13600001
-23.410999 3.908 -2.131
-17.674 9.3730001 -0.801
10.019 -0.67799997 -1.6569999
-27.847 4.1220002 -2.2190001
-0.755 -6.605 -1.472
1.511 -6.9060001 -1.452
6.2449999 23.813999 -1.3200001
-26.655001 -1.1900001 -2.0929999
-58.681 2.9419999 -2.7460001
45.956001 0.70499998 -1.568
59.092999 -0.78100002 1.8329999
-51.488998 -13.288 1.017
0.52200001 13.223 0.34099999
-22.014999 -0.50599998 -1.9630001
-64.927002 6.743 -0.30899999
-7.5630002 4.2179999 -0.54299998
-47.904999 -10.759 1.558
-2.036 11.788 0.48100001
-65.748001 -23.979 0.097999997
-47.146 0.75199997 -2.4630001
-36.674 8.026 1.063
23.118 0.43599999 -1.654
-20.940001 12.211 1.029
28.943001 3.7060001 -1.806
17.250999 2.267 -1.73
26.334 -7.6300001 -0.0099999998
11.932 2.0539999 0.035999998
2.2750001 18.596001 -2.197
-44.889 -7.0539999 1.7460001
-16.813999 7.4910002 -2.0610001
51.476002 7.2950001 1.637
-0.88999999 15.32 0.085000001
-55.495998 5.2280002 -1.58
-35.512001 2.8529999 -2.2490001
-19.388 -7.2249999 0.17399999
12.499 8.4799995 0.72000003
-41.702 -7.9229999 -0.389
-69.203003 -23.658001 1.3200001
-28.738001 -1.3940001 -2.1070001
-17.632999 -0.030999999 -1.966
-41.411999 -3.652 -2.369
-1.237 9.4519997 0.53100002
-3.7520001 -7.0689998 -1.425
-40.835999 5.6810002 -2.348
-14.483 1.913 -1.936
-15.402 -6.4660001 -1.235
-10.201 0.324 -1.852
-28.249001 11.206 -0.96799999
-1.623 -3.5190001 -1.691
-10.772 3.5039999 -1.969
-20.408001 9.0360003 -0.917
10.723 1.447 -1.7
26.937 1.318 -1.653
4.2789998 15.005 -2.0109999
-24.077999 -8.5369997 -1.849
9.9449997 5.5300002 -1.464
28.325001 -1.523 -1.552
-52.034 -5.48 1.0039999
-53.159 -14.688 -0.56800002
-56.554001 -17.047001 0.39300001
-8.8660002 -3.5599999 -1.641
-4.1440001 -4.0349998 -1.598
1.95 14.273 -2.0090001
-11.263 -2.7880001 -1.159
29.91 -6.6430001 -1.335
37.919998 -8.8210001 -0.34
-40.292 5.9809999 1.586
-36.778 15.406 0.145
7.5219998 16.764 -0.71899998
-7.5300002 6.9619999 -1.9809999
-12.138 -6.2290001 -1.546
-20.135 -1.2130001 -1.905
5.3740001 -7.0900002 -1.061
-19.974001 2.832 -2.0380001
2.655 22.798 -2.1949999
4.0830002 10.922 -1.944
-13.834 -0.90499997 -1.926
-42.882999 -8.6149998 1.688
3.846 -1.299 -1.734
-9.3219995 -6.9629998 -0.86900002
-46.354 4.3499999 -16.204
-61.973999 -20.879 0.86799997
-36.720001 5.8569999 -0.57499999
58.228001 -3.402 0.79699999
52.796001 -7.8889999 -1.187
-51.353001 -3.6059999 1.623
-0.32600001 6.3520002 -1.987
19.579 8.3570004 0.92900002
44.537998 -8.2419996 0.13600001
10.596 7.3660002 -1.541
-49.513 -11.985 -0.19599999
-24.327999 -1.786 -2.0409999
14.064 -9.3559999 0.67299998
-4.941 10.504 -1.011
-48.032001 7.1030002 0.131
16.945 -7.066 -0.93300003
6.9619999 6.349 -1.899
9.8889999 11.807 -1.982
-36.527 9.533 -0.324
-23.782 12.711 -0.83600003
-77.346001 6.652 2.8340001
25.014999 0.89099997 -1.643
28.440001 -8.1239996 1.021
3.112 5.6830001 -1.952
23.591 -4.8779998 -1.455
0.63 17.732 -1.1059999
7.5310001 2.8210001 -1.806
25.865 8.2209997 0.954
-26.327999 -7.5539999 -1.997
56.597 -8.4390001 1.0779999
13.64 -1.251 -1.648
-17.391001 3.503 -0.58499998
-38.408001 5.8410001 -1.994
49.666 -8.3120003 0.366
-7.3319998 10.456 -1.295
-3.625 12.455 -1.319
6.027 3.993 -1.905
14.32 -7.1859999 0.079999998
-6.8870001 8.9420004 0.465
-25.478001 2.0610001 -2.148
-18.757999 10.962 -0.76300001
19.635 -1.551 -1.609
23.174999 10.006 -0.76899999
22.209999 -2.0079999 -0.26300001
-0.93099999 11.864 -1.0420001
2.8499999 16.165001 -0.025
1.151 23.777 -1.436
60.085999 -3.2349999 1.123
16.046 -3.1359999 -1.614
47.429001 7.9349999 0.132
17.429001 -0.67299998 -1.62
-16.943001 -5.1599998 -1.765
13.319 16.231001 -1.346
11.977 3.888 -0.28099999
-67.084 4.8439999 -1.205
-3.2160001 17.292999 0.26199999
-48.861 -2.8 0.361
-54.092999 -2.348 1.696
3.9879999 -4.2480001 -1.569
39.034 3.3789999 -1.7640001
2.5109999 0.454 -0.91000003
50.720001 -6.4400001 -0.51099998
-67.327003 -23.091 0.43099999
-38.363998 5.9070001 1.275
-58.522999 -18.483 1.141
22.121 -3.29 -1.5930001
23.774 8.2629995 0.89999998
34.701 3.1689999 -1.767
-31.323 1.438 -2.109
-44.791 -1.821 -2.332
7.5770001 21.84 0.44100001
33.216 8.1070004 0.153
-12.769 6.8499999 -2.0220001
2.819 19.972 -0.44100001
13.589 8.427 -0.78600001
2.622 -12.309 0.55400002
9.6359997 8.9610004 -1.484
-34.563 -1.6289999 -2.1789999
77.785004 -8.6639996 2.8559999
-75.288002 -2.382 -2.207
2.5420001 25.799999 -0.79500002
-3.299 10.15 0.56999999
-13.837 -5.6539998 -1.636
-36.167999 5.5560002 -2.316
29.386 8.1750002 0.903
7.3540001 22.417999 -1.421
-39.778 16.532 -0.134
-0.131 4.5770001 -2.0190001
8.4659996 5.698 -0.5
-55.98 -0.017999999 -1.587
11.451 9.0930004 -1.2359999
19.351999 2.3380001 -1.714
40.334 -6.4070001 -1.37
4.2610002 4.0650001 -1.946
-4.8130002 -5.671 -1.534
18.125 6.4089999 -0.884
-6.9239998 3.4449999 -1.978
-5.9759998 4.9180002 -0.235
-44.146999 -3.3510001 -0.72299999
4.5580001 0.83200002 -1.748
-29.103001 2.4360001 -2.142
-10.907 9.0790005 -0.25
27.025 -6.7989998 -1.373
-0.40000001 34.629002 -0.067000002
11.103 -10.862 -1.1339999
46.528 -8.0810003 0.133
-41.818001 -5.4749999 0.84899998
-47.734001 -2.872 -1.326
4.4419999 -7.1149998 0.39899999
61.818001 -3.2320001 1.149
6.2670002 -1.933 -0.60600001
22.951 -6.7579999 -1.277
-2.4419999 15.271 -1.128
-5.0180001 -2.5220001 -1.676
-4.6110001 15.215 -0.78100002
20.231001 -6.2049999 -1.358
-44.09 -6.8800001 -0.41999999
24.775999 -1.299 -1.627
-0.36000001 14.19 -1.104
6.2709999 20.774 -0.63300002
-43.359001 -5.2160001 1.686
2.1559999 -5.2550001 -1.527
10.674 -7.0770001 0.64200002
-0.70899999 10.08 -0.98299998
13.83 0.47400001 -1.6670001
-73.125 -26.004999 2.3410001
-42.993 -4.4549999 -1.462
-36.351002 17.003 -0.84200001
40.872002 9.3710003 0.142
20.997 8.2980003 -0.26800001
-72.723 6.6789999 -0.81800002
6.4310002 11.706 -1.027
-20.198 12.15 -0.84500003
50.727001 -8.0939999 1.946
15.991 8.5579996 -0.37599999
24.042 -7.6550002 0.28600001
31.995001 3.526 -1.788
-61.535 5.98 2.3
-20.054001 -7.211 -1.758
-14.219 4.6069999 -2.092
17.851 8.2819996 -0.78500003
5.993 10.216 0.113
-67.346001 6.7160001 1.237
-2.309 4.3909998 -0.52600002
0.294 10.952 -1.997
3.928 7.2329998 -1.937
4.5349998 16.743 -2.0190001
-1.326 13.725 0.25
-36.785 12.197 1.52
-15.82 5.1399999 -2.0439999
12.106 -1.8559999 -1.591
6.6729999 8.4919996 -0.92699999
7.5250001 23.856001 0.46000001
10.292 10.004 -0.34900001
18.597 -8.125 0.89499998
-0.72799999 -4.8909998 -1.564
2.8340001 12.848 -0.382
-22.593 12.185 0.59799999
79.808998 -4.434 0.082999997
-75.878998 6.7270002 -0.86199999
12.116 -7.3610001 -0.93599999
-47.597 22.781 0.74000001
-60.741001 -20.160999 1.666
6.7379999 0.82700002 -1.721
-44.115002 5.8870001 -0.41800001
-69.879997 6.5339999 0.097999997
-54.275002 7.1529999 0.122
-45.005001 22.538 0.36500001
6.0739999 16.063999 -0.345
-49.987 3.237 -2.6289999
9.5769997 4.0170002 -1.886
6.1810002 17.634001 -1.75
-6.8379998 1.841 -1.863
-52.720001 -2.7539999 -1.485
53.314999 7.9790001 0.123
-77.813004 -2.3329999 -0.40799999
-3.796 2.0569999 -1.852
6.0310001 13.29 0.001
-7.744 -2.4200001 -1.6849999
34.939999 -1.377 -1.552
-57.808998 -16.318001 -0.26800001
21.700001 1.237 -1.668
13.309 5.8639998 -1.8609999
-36.914001 16.167999 1.572
20.812 7.8540001 -1.844
-43.226002 -9.7869997 0.65499997
-15.265 12.208 -0.778
-39.453999 19.079 -0.14
-15.045 3.664 -0.12
-6.098 -6.7509999 0.29899999
-4.0500002 4.5489998 -2.016
-23.445999 -7.066 -1.904
59.966999 -8.3109999 2.256
-14.776 7.823 -2.056
16.759001 0.76800001 -1.661
-48.923 -4.6399999 -0.182
44.007999 -8.3070002 1.724
71.531998 -8.7469997 2.1889999
-22.816 11.124 -0.92500001
-10.237 1.906 -1.891
-33.16 0.052000001 -2.079
-18.493 -5.3829999 -1.8099999
-21.531 3.056 -2.0699999
-45.563999 6.027 -1.267
2.309 -10.275 0.44800001
1.809 8.6639996 -2
23.041 -1.123 -1.65
-16.007999 1.615 -1.971
-27.054001 -9.5839996 -1.914
-13.587 0.64899999 -1.886
-12.633 -2.4030001 -1.773
-12.348 -6.5549998 0.41999999
11.604 -12.372 0.78299999
9.4589996 2.345 -1.762
40.703999 0.061000001 -1.607
-2.217 -7.0710001 -1.245
-1.967 4.829 -2.036
-38.543999 0.72899997 -2.1819999
16.612 6.0419998 -1.319
19.972 -8.4160004 -0.36000001
-49.931999 -5.0560002 -1.402
-21.816 -6.29 -1.886
59.039001 -2.941 2.2079999
-6.3200002 16.195999 -0.352
-9.3039999 9.1149998 -0.84399998
-19.125999 9.4720001 -1.6339999
-20.413 -2.7179999 -1.949
-23.673 -3.1670001 -1.994
78.489998 11.211 0.45699999
60.771999 -8.5649996 0.82700002
7.7610002 -0.36500001 -1.677
11.049 3.5569999 -1.832
-58.402 6.5739999 -0.61799997
49.638 3.3410001 -1.714
-26.754999 0.31900001 -2.099
29.954 -7.6719999 -0.228
0.509 -5.757 -1.499
54.359001 -8.6619997 0.38
9.5839996 -2.6619999 -1.552
-14.878 5.5009999 -0.69400001
60.748001 -6.0960002 2.2739999
14.778 -4.4429998 -1.512
-9.434 -6.6560001 0.60000002
-3.092 20.497999 -0.59500003
6.059 14.663 -0.889
-46.376999 -0.64499998 -2.4189999
9.1289997 -6.664 -1.402
-20.99 1.179 -1.994
-15.169 -2.951 -0.75300002
35.422001 -8.9429998 0.322
57.937 -5.1880002 -1.015
25.655001 2.25 -1.696
47.089001 1.6849999 -1.612
13.834 9.6859999 0.072999999
0.168 9.382 0.0080000004
-42.483002 -6.151 -0.396
-71.406998 35.625999 2.908
14.754 2.0439999 -0.45899999
5.4619999 20.134001 -2.1140001
6.1919999 21.294001 0.95899999
57.175999 -2.4630001 -1.288
15.49 -7.336 -0.85799998
1.438 11.551 0.60299999
40.159 8.0869999 0.336
2.97 11.598 -1.202
-19.708 3.8770001 -0.93300003
-10.818 -6.678 -1.048
20.254 0.88499999 -1.6619999
-0.54799998 7.9819999 -1.962
78.93 5.474 -0.41800001
-7.6560001 -6.7179999 -0.93000001
0 0 0
-43.709 5.8779998 1.2130001
47.094002 4.0949998 -0.78600001
-14.465 -6.8779998 0.75099999
43.084 -8.677 0.345
5.2729998 11.803 -1.928
19.277 -3.464 -1.599
44.615002 8.8360004 0.34999999
43.973999 -2.0220001 -1.493
4.73 9.573 -1.943
-40.773998 2.9519999 -2.326
-72.778 6.7979999 1.3200001
62.799 -5.4520001 0.84399998
-16.525999 -0.97799999 -1.918
-12.509 -3.1300001 -0.44400001
16.556999 9.6960001 0.40099999
-12.417 5.0609999 -2.0039999
6.6129999 5.1269999 -1.2029999
-54.817001 6.0440001 -2.5650001
-7.8920002 9.2399998 -0.54900002
-69.311996 6.4809999 -1.6109999
0.986 14.571 0.090999998
0.972 5.527 -1.949
-14.185 9.3990002 -0.759
1.96 12.398 -1.992
4.691 13.465 -1.987
49.321999 7.9419999 1.581
37.765999 -8.8249998 1.092
6.7360001 -6.777 -1.392
-25.225 -8.033 -0.486
-6.993 12.431 -0.51300001
32.43 -8.2159996 -1.284
58.798 -8.382 0.80699998
-7.566 5.0669999 -1.9859999
44.660999 -7.8470001 -1.247
2.3469999 15.439 -1.141
-45.957001 -2.812 -1.844
-12.395 9.7950001 0.56800002
-68.760002 6.6389999 1.2589999
17.372999 -7.6810002 0.26699999
-9.9650002 -2.6600001 -1.705
-16.940001 8.8920002 -1.9220001
-5.6240001 11.718 0.33899999
-40.598999 -4.869 -2.3269999
-59.252998 -18.855 -0.28400001
32.285 8.1330004 1.335
-17.572001 12.15 0.27399999
-6.6950002 -5.355 -1.535
2.6860001 28.011999 -1.048
-66.226997 6.4039998 -1.53
-55.124001 6.862 -0.95999998
44.154999 7.5079999 1.724
13.947 11.048 -0.588
-50.672001 -12.772 -0.206
34.706001 -6.5630002 -1.367
5.177 -1.777 -1.63
-35.623001 12.664 0.32600001
-7.5159998 18.837999 0.046
-17.218 3.55 -2.049
17.319 -3.687 -1.539
2.7690001 22.282 -0.79500002
-49.612999 -3.4300001 1.341
7.8130002 -7.5869999 -0.079000004
-6.5110002 -0.125 -1.8150001
-5.0380001 -7.0250001 -0.81199998
-70.716003 -2.635 1.284
-29.497 0.79500002 -2.1670001
-8.8629999 1.267 -1.872
76.292999 -8.9910002 0.449
-47.609001 -3.5799999 0.69
22.582001 2.756 -1.755
42.518002 2.47 -1.691
-2.1600001 5.7140002 -1.0039999
37.275002 -8.0439997 -1.266
22.458 -7.9039998 -0.294
-27.033001 2.967 -2.1370001
-16.65 -6.467 -0.36700001
-7.598 16.700001 -0.38299999
26.469999 -9.6029997 -0.38499999
9.9820004 -6.402 -0.324
-7.6890001 -0.98500001 -1.817
24.52 9.4020004 0.60699999
1.544 24.893999 -0.59399998
-57.483002 -2.724 -1.002
-55.959 4.0409999 -2.6129999
14.477 -2.3410001 -1.601
-18.27 12.222 -0.89999998
-62.011002 -20.292999 2.415
-7.539 -3.8310001 -1.612
2.924 3.862 -1.925
58.347 -4.1020002 2.187
-40.620998 6.0760002 -0.866
13.317 2.0829999 -0.396
10.652 1.839 -0.33899999
-20.24 8.1149998 -2.076
-11.377 -4.132 -1.6569999
3.493 -2.3280001 -0.81199998
-36.714001 7.0370002 0.149
-14.095 3.664 -1.138
27.875 2.7720001 -1.725
58.562 -6.3429999 2.201
-40.75 5.1659999 0.62199998
-3.3499999 -7.0240002 -0.14300001
-0.84200001 -6.835 -0.142
0.62300003 14.449 -2.0179999
-42.898998 -8.427 0.345
20.381001 -4.8569999 -1.48
-42.140999 5.9369998 -2.2030001
-10.362 4.777 -2.085
2.7379999 -6.9689999 -0.89600003
-52.918999 -3.0639999 0.74299997
47.737 -8.1160002 0.69599998
-45.615002 -10.994 -0.45199999
1.484 26.305 -1.6109999
-36.870998 14.788 1.552
26.665001 -4.362 -1.469
-1.175 4.1090002 -1.2460001
-7.0029998 15.05 -1.131
-66.966003 -24.507 0.43200001
-2.9489999 -3.4430001 -1.651
-35.529999 11.264 0.324
-4.0139999 17.264999 -0.79900002
-61.818001 -21.237 -0.71100003
2.8310001 14.101 -1.035
51.067001 -2.0680001 -1.431
-45.801998 -9.8439999 0.68099999
20.903999 -1.8329999 -0.60500002
-61.041 6.375 1.141
-55.908001 -1.336 -1.586
39.073002 -7.9949999 -0.354
-48.846001 -11.468 0.97100002
58.129002 -4.8720002 1.095
46.971001 9.1479998 0.35800001
-11.677 0.36199999 -1.845
-55.168999 6.901 1.054
9.4580002 -7.7249999 -0.69800001
-1.661 10.561 -0.074000001
15.022 -0.071999997 -1.645
58.307999 -2.1289999 1.095
0.41 16.416 -0.42899999
24.334 10.542 -0.48699999
-8.9460001 -0.234 -1.8710001
31.646 -1.143 -1.5880001
-0.78799999 12.086 0.245
-52.471001 -13.861 0.37799999
1.5369999 -6.9330001 -0.112
-58.497002 6.6440001 1.549
8.0179996 9.2110004 -1.363
13.408 -7.191 -0.84500003
-9.4759998 3.4289999 -1.944
-10.68 -1.587 -1.8710001
-36.388 14.19 -0.102
-38.206001 5.0380001 0.32800001
0.345 -6.908 -0.86199999
10.585 -1.8430001 -1.581
17.493 -4.967 -1.47
-56.695999 7.0029998 1.077
-3.7130001 10.091 -0.72299999
-53.894001 -15.41 2.105
4.677 2.848 -1.846
2.6630001 7.5320001 -1.959
9.2469997 2.8399999 -4.0539999
-14.163 -3.2309999 0.0020000001
21.143999 7.9850001 0.97299999
-59.764999 6.4850001 -1.72
-32.452999 -11.148 -1.119
41.132999 8.1280003 1.627
9.3929996 4.7820001 -0.57499999
-19.202999 -2.098 -1.943
6.8889999 21.059 -1.835
-9.8559999 8.8959999 -1.983
6.8920002 -1.4960001 -1.643
-53.591999 6.421 -2.506
-60.046001 -19.419001 -1.118
1.749 17.08 -2.1159999
9.776 0.58499998 -1.6849999
-4.9190001 9.1230001 -0.81800002
-18.702999 2.9649999 -2.017
-37.005001 -1.684 -2.089
11.826 1.924 -1.272
5.302 -8.0469999 0.53500003
-47.541 22.528 1.988
18.035999 7.349 -1.832
-65.958 -22.917999 0.91299999
-16.6 -6.4039998 -1.6569999
-31.608999 -2.2780001 -2.1340001
-20.622999 -0.041999999 -1.952
-19.136999 -0.43000001 -1.923
36.604 -9.1350002 -0.092
-50.165001 -2.8039999 -1.1059999
-5.1700001 10.351 0.384
10.434 -10.237 -0.26300001
-5.9559999 4.1209998 -1.214
0.60000002 21.388 -0.093999997
34.597 7.9850001 0.15099999
-7.342 10.166 0.107
-48.882 -2.849 -2.2550001
9.7889996 10.69 -1.408
6.026 9.0459995 -1.8839999
2.898 17.733999 -1.451
0.75800002 7.973 -1.964
-3.4560001 4.145 -0.98400003
74.133003 -8.8100004 1.3430001
-5.388 16.721001 -1.007
71.200996 -8.6660004 0.93199998
16.881001 -1.798 -1.572
6.0679998 -3.158 -0.76999998
23.386999 6.8309999 1.033
29.966 1.4529999 -1.653
13.628 -7.9860001 0.74299997
21.566999 -3.1170001 -0.252
6.2210002 18.577 0.405
5.5209999 14.416 -1.987
36.394001 1.198 -1.625
25.975 -7.9920001 1.128
8.8079996 8.559 -0.64300001
-26.277 -7.3899999 -0.66900003
-1.693 17.351999 0.17900001
7.8969998 4.5960002 -0.69700003
38.896 -1.714 -1.528
-61.707001 6.3099999 -1.096
-49.970001 -2.1830001 0.713
9.6490002 9.1569996 0.65899998
6.9689999 12.746 0.60799998
25.844 -7.5619998 -1.149
-53.889 -2.6989999 -2.1960001
22.535999 8.3210001 0.57300001
6.3800001 23.691999 0.013
5.7670002 6.6729999 -1.92
-65.428001 -24.221001 1.2690001
-45.645 -11.893 -1.3049999
4.1550002 -7.0500002 -0.80500001
-6.9710002 -7.6719999 -0.012
24.532 -4.0370002 -1.508
19.927999 -0.35100001 -1.631
-43.780998 -9.5139999 1.724
7.2719998 16.832001 0.48699999
-2.4749999 9.4219999 0.001
-19.188 -5.3000002 -0.796
18.715 -6.1100001 -1.378
-61.237999 -2.7579999 -0.65399998
22.174999 -2.0599999 -1.586
-16.447001 6.316 -2.0539999
0.18799999 11.948 -0.537
-43.925999 -6.2989998 1.428
-4.085 21.299 0.035
-54.813999 -2.7720001 -0.94599998
-17.125 1.0880001 -1.995
14.827 8.5030003 -0.764
-10.017 9.7589998 0.25099999
-8.3179998 3.829 -1.998
-36.903999 8.3520002 -0.092
-67.380997 6.566 -1.9630001
46.880001 -8.0649996 -1.036
-33.277 3.8940001 -2.2679999
-50.478001 -12.606 0.99900001
-15.079 -1 -1.941
2.7690001 -4.2030001 -1.594
-12.733 2.4590001 -1.934
-57.778999 -16.565001 1.122
-55.314999 3.898 -1.5700001
46.347 7.5079999 1.7970001
-47.82 5.9489999 -0.17399999
16.118999 8.6219997 0.82700002
-13.843 5.4910002 -1.354
-53.115002 4.5320001 -2.8110001
-65.021004 6.494 -1.499
-12.594 -1.663 -0.81800002
71.064003 -8.7860003 -0.79799998
-18.368 1.244 -1.955
-46.897999 -13.262 0.36000001
-65.208 5.8169999 0.41299999
6.1680002 22.924999 -2.132
2.549 24.000999 -1.577
-56.115002 -16.556 -0.61500001
-51.979 -13.72 2.027
-17.993 7.2259998 -2.0699999
-9.5900002 -5.9990001 -1.535
24.844 -6.099 -1.38
-44.588001 -3.01 -1.784
4.8130002 -5.9980001 -1.455
14.323 2.335 -1.758
-11.8 -7.1729999 -0.57800001
7.2179999 16.256001 -1.882
-16.056999 12.493 0.175
-6.7270002 9.4790001 -0.65499997
6.586 18.879999 -0.92799997
11.092 3.096 0.115
-22.912001 2.76 -2.0669999
-36.59 10.665 0.147
-33.910999 -4.5 -2.151
-6.1719999 -2.8099999 -1.6440001
44.606998 3.9990001 -1.788
1.362 9.7709999 -1.994
19.046 8.2969999 -1.329
-57.035 -17.414 -0.63
-5.5510001 2.0929999 -1.845
8.4899998 3.543 -1.851
5.8720002 -6.4029999 -0.233
-39.282001 5.1570001 0.81
20.044001 -8.5970001 0.80800003
-37.264999 5.7849998 -1.6900001
-62.997002 -2.549 1.1670001
-18.194 -1.143 -1.934
-21.17 8.8199997 -1.9069999
-3.6500001 -5.8629999 -1.534
0.45100001 -1.3609999 -0.47499999
4.6389999 -0.42199999 -1.7
7.4000001 23.681 -1.505
21.468 -6.3010001 -1.337
-59.494999 -19.111 0.83899999
-21.539 -1.58 -1.921
-36.881001 17.341999 1.587
1.677 13.425 0.34400001
21.136999 -3.9619999 -1.524
21.1 9.4329996 -0.53500003
-58.241001 -17.75 2.2679999
23.664 8.7370005 -1.223
6.0009999 9.441 -0.76099998
-16.313999 3.5969999 -0.145
2.7030001 26.289 -2.3959999
-36.588001 9.1540003 0.78100002
-14.707 3.108 -1.998
20.252001 -7.4850001 -1.133
-48.311001 -3.694 -0.47400001
-18.825001 -6.4970002 -1.756
2.783 9.8050003 -1.9680001
2.9549999 21.152 -0.243
1.688 -11.613 0.47600001
-48.451 5.9829998 -1.678
-13.849 -3.809 -1.738
-0.31799999 -3.8110001 -1.6670001
-42.444 -4.9920001 -0.39399999
73.209999 -2.796 -0.82099998
-43.866001 -7.4369998 1.222
23.493 -7.6560001 -0.74900001
18.372999 -1.374 -1.609
56.974998 -8.2629995 2.1559999
24.916 8.2139997 0.28999999
-52.476002 -4.8179998 1.9910001
12.846 1.077 -1.6849999
-56.237999 28.004999 0.84200001
1.668 -3.5020001 -1.693
-64.639 6.5650001 1.994
-36.291 6.9369998 1.224
10.288 10.466 0.70499998
-3.836 3.2279999 -1.902
-18.077999 8.8360004 -1.776
-47.910999 5.1490002 -2.5209999
6.1750002 18.834 -1.998
6.0679998 16.184 0.79400003
-50.953999 -12.936 1.987
0.465 14.955 -0.90100002
-15.162 -6.6989999 -0.142
-7.605 11.455 -0.81199998
-28.049 10.527 -0.029999999
-57.653 -17.820999 0.81699997
4.5149999 -1.671 -0.639
6.8109999 12.73 -0.69
6.7849998 -5.5019999 -1.49
-20.025 12.15 0.28099999
-4.8460002 14.441 -1.5829999
-51.688 -5.9759998 1.969
1.624 23.254 -0.542
10.529 8.4139996 -1.038
23.224001 -3.8050001 -1.533
-8.3730001 7.7199998 -1.98
-6.9239998 6.0009999 -1.999
-59.842999 6.6300001 1.124
-14.379 -2.0739999 -0.86900002
-2.937 13.026 -0.62300003
-36.081001 16.094 0.80900002
32.515999 1.176 -1.637
9.8559999 11.747 -0.85299999
50.575001 7.9250002 1.374
-3.0439999 21.601999 -0.36399999
-45.556999 5.9829998 -2.395
-7.0890002 8.8400002 -1.786
-16.573999 9.1330004 -0.86699998
2.3199999 18.723 -0.96399999
6.8379998 7.9510002 -1.906
-5.5819998 -0.76300001 -1.798
19.601999 -7.3670001 -0.088
44.570999 8.6239996 1.456
10.528 4.619 -1.915
-11.615 -5.23 -1.605
44.374001 10.027 0.34999999
-10.261 9.8140001 -0.84500003
-44.972 -9.1090002 -0.156
10.875 4.0300002 -0.653
-61.023998 -20.159 -1.142
9.3050003 -1.577 -1.619
-55.061001 4.9349999 -2.572
8.0979996 -7.1170001 -1.377
7.5960002 1.688 -1.743
-22.273001 3.483 -1.349
-1.574 -5.8410001 -1.521
6.777 -10.379 0.62800002
-29.02 -0.31200001 -2.1270001
33.426998 8.1429996 1.373
46.098999 4.2309999 -1.277
8.6899996 -9.099 -1.273
-21.539 9.1110001 -0.83700001
-28.155001 0.80199999 -2.059
11.37 -11.591 -0.13500001
11.055 -0.27200001 -1.631
-10.27 -4.0349998 -1.627
-43.153999 -7.4089999 -0.139
45.783001 5.8039999 -1.273
2.1240001 5.178 -1.943
50.765999 -8.1689997 0.36899999
45.462002 -8.04 -0.442
-48.143002 -10.796 0.36199999
12.566 2.957 -0.066
1.76 15.745 -2.0450001
-42.188 -4.6500001 -2.197
13.547 8.4219999 0.368
-21.132 12.131 -0.13600001
-45.449001 5.059 -15.913
29.17 -0.69499999 -1.602
-50.924 -7.1300001 -1.136
23.613001 -1.795 -0.986
25.132 -7.8299999 0.28999999
-39.738998 5.7839999 -2.2809999
-13.206 -6.5019999 -1.2460001
-13.345 -6.9190001 0.71700001
45.474998 -8.0270004 0.67400002
-11.401 4.4039998 -2.0439999
29.514999 -8.1730003 0.67400002
-28.826 -2.49 -2.1199999
52.84 -0.396 -1.487
32.015999 4.3309999 -1.041
-23.992001 -7.6599998 -1.061
20.724001 -2.28 -1.591
49.737 -8.1540003 -1.11
46.657001 -7.973 1.8099999
10.078 -7.9050002 0.18700001
-8.9370003 -4.651 -1.574
52.380001 7.8720002 1.415
-14.326 -6.559 -1.063
24.851 -0.208 -1.63
17.035 8.3470001 -0.059999999
17.745001 1.24 -1.656
-1.365 -4.105 -0.80500001
9.7270002 6.9250002 -1.046
-23.624001 12.213 0.16500001
-50.443001 -2.7820001 -2.3329999
-5.8299999 13.173 -0.51999998
-28.534 12.221 -0.44600001
4.1789999 1.869 -1.773
-20.597 3.7079999 -1.855
58.692001 -1.908 2.1949999
7.1539998 8.5229998 0.050000001
-5.0890002 4.223 -1.994
2.345 21.413 -1.386
23.389999 1.545 -1.6799999
-4.0120001 -2.9579999 -1.67
-42.404999 5.4590001 0.14
55.671001 -8.1639996 2.112
-22.410999 0.505 -2.0020001
-51.073002 -2.859 -0.51200002
12.117 -2.941 -1.567
-5.3249998 -4.7160001 -1.5829999
-46.991001 -2.8859999 -2.1600001
-72.038002 -2.5639999 -1.675
19.407 -2.6210001 -7.9689999
-0.74199998 9.2969999 -1.878
-66.490997 -24.021999 1.283
0.898 19.933001 -1.171
21.469999 0.11 -1.645
-37.310001 5.9369998 0.32600001
48.695999 7.8530002 0.70599997
26.437 0.296 -1.617
11.383 -7.283 -0.148
28.243 8.1990004 1.017
-15.074 -5.5359998 -1.6799999
0.72299999 18.799 -0.96100003
-26.348 -8.7950001 -1.709
45.598 -0.375 -1.554
13.039 4.8239999 -1.932
-3.848 12.604 -0.139
1.272 20.558001 -0.227
16.264 1.823 -1.716
3.3239999 -5.1209998 -1.536
-32.166 -0.34400001 -2.1689999
28.636 -8.2010002 -0.028999999
-42.862 -3.543 -0.917
10.951 2.49 -1.7690001
-36.435001 11.162 1.256
-11.59 -1.77 -1.173
-35.056 1.875 -2.2130001
-14.359 -1.869 -1.9170001
4.3280001 8.2229996 -1.947
22.674999 -5.5489998 -1.404
59.956001 -4.02 0.396
-40.127998 18.921 -0.95200002
7.5489998 12.157 -1.205
7.073 3.7909999 -1.886
4.348 12.354 -1.955
2.277 20.073 -1.42
5.6989999 1.044 -1.732
1.7 24.943001 -1.641
-68.68 6.527 -0.76200002
9.0249996 4.921 -1.8660001
-8.448 -7.1030002 -0.287
-26.242001 -2.165 -2.063
32.102001 8.1020002 0.155
-2.3540001 -4.3210001 -1.6059999
-0.36399999 5.467 -1.414
-10.152 -6.6290002 -0.184
4.0669999 5.2399998 -1.931
7.5599999 5.928 -0.98000002
-10.059 -0.741 -1.8279999
-44.403 -9.3299999 0.898
-7.8439999 1.52 -1.877
-2.993 4.6079998 -2.027
14.619 -3.414 -1.6440001
2.881 17.063 -0.56599998
-16.09 2.678 -2.0009999
17.933001 -7.3769999 -0.76999998
-0.43000001 12.868 -1.682
30.708 -5.9650002 -1.367
78.943001 6.0489998 1.4119999
-10.935 9.5349998 0.69999999
56.526001 -8.3940001 -0.99299997
55.286999 -8.2600002 0.12
-53.957001 2.7920001 -2.5090001
5.8379998 -6.191 -1.448
6.0549998 17.025 -0.91500002
13.763 9.4960003 -0.94800001
-36.536999 13.125 0.146
12.779 9.118 -0.685
-14.878 0.95499998 -1.9119999
1.2410001 11.371 -1.989
-25.104 3.026 -2.1229999
-22.716999 12.605 -0.34
11.495 8.4610004 0.352
-12.017 -3.323 -1.7130001
20.580999 1.873 -1.698
79.899002 -3.477 0.45899999
-36.418999 3.6760001 -2.316
-41.544998 -5.5970001 -0.67400002
-69.060997 -24.171 0.43700001
-11.217 2.5769999 -1.9170001
49.872002 -8.1440001 1.359
18.554001 -0.36399999 -1.623
3.77 13.915 -2.0109999
-24.812 -0.88300002 -2.0810001
-8.5299997 -6.658 -1.46
-15.797 7.7519999 -2.0510001
-61.379002 -20.544001 0.106
-3.415 -4.763 -1.579
-5.0479999 -3.559 -1.61
8.7189999 -0.0099999998 -1.666
15.063 -7.2740002 0.77499998
-4.5430002 4.7789998 -1.152
-52.396 -1.983 -2.4289999
-0.021 9.3260002 -0.99400002
-53.928001 -15.224 -0.97000003
5.4429998 -6.9549999 0.50800002
-12.629 -5.1100001 -1.638
2.556 24.782 -0.59299999
18.259001 2.405 -1.722
74.125 -2.8069999 0.95700002
-3.4260001 19.209 -0.89999998
6.0180001 12.289 -0.234
-18.024 3.4349999 -1.376
7.217 20.372999 -1.0190001
38.344002 -8.2340002 -1.051
5.2410002 4.6500001 -1.962
-12.513 0.935 -1.867
-6.7389998 -6.7729998 -0.50199997
22.474001 -4.4850001 -1.487
-36.675999 6.717 -1.233
-41.708 -6.9099998 -0.38699999
-44.617001 -3.9879999 -1.523
1.341 13.207 -1.983
5.1620002 15.554 -2.0109999
9.8129997 2.099 -0.847
2.549 6.5279999 -1.9630001
-12.684 -0.449 -1.89
0.463 7.007 -1.966
-40.578999 6.0700002 0.14300001
13.672 -8 -0.303
3.628 -3.3139999 -1.691
6.5170002 2.9530001 -1.821
12.616 -0.98900002 -1.65
-19.843 1.834 -2.01
13.774 16.775999 -0.63300002
2.5669999 26.606001 -1.451
-14.548 -0.146 -1.927
26.15 8.2010002 -0.0099999998
26.870001 8.2150002 0.98100001
12.999 -2.316 -1.582
-6.8930001 0.83099997 -1.825
38.199001 2.823 -1.72
-19.228001 12.484 -0.68000001
29.208 -7.3600001 -1.309
-16.910999 -6.4320002 0.62
-17.603001 -5.915 -1.738
3.0610001 10.972 -1.98
16.087 6.7519999 -1.8430001
4.2410002 6.2820001 -1.936
6.1849999 5.7179999 -1.897
-26.514999 1.9859999 -2.085
2.608 -6.1700001 -1.484
2.385 21.851999 -2.3729999
-11.805 -6.1739998 -0.55000001
-13.275 5.9549999 -2.0320001
79.797997 -4.427 -0.91500002
-64.957001 6.6680002 0.86699998
30.045 8.1859999 0.15800001
5.2420001 17.441999 -2.0369999
13.343 -7.1399999 0.255
-46.664001 -1.749 -2.437
71.053001 -9.5769997 1.298
-6.9450002 4.2350001 -1.3789999
57.481998 -2.983 1.5190001
-66.121002 4.198 -1.523
5.4219999 -2.2520001 -0.20200001
-10.996 1.077 -1.9170001
38.748001 -8.6160002 0.60799998
-16.215 -4.4910002 -1.77
-42.651001 -7.6989999 1.4
17.224001 6.6090002 -1.846
-8.8179998 9.6120005 -0.13500001
-17.16 -1.734 -1.918
-6.5440001 4.1329999 -0.41999999
8.4989996 2.1199999 -1.757
-14.864 5.3520002 -1.931
-6.6290002 11.822 0.25
2.8 15.35 -2.0109999
20.534 8.6280003 0.54699999
-41.273998 5.993 1.619
6.5910001 22.4 0.28
18.434 -3.973 -1.5319999
18.610001 8.3719997 0.76899999
-52.333 -5.1599998 0.125
-16.596001 3.457 -1.159
-36.308998 16.153999 -0.352
-41.433998 4.9039998 -2.378
-0.20299999 10.122 -1.836
43.945999 9.3059998 0.89099997
24.01 8.316 -0.15099999
-8.8590002 9.5939999 -1.803
6.0120001 11.21 -0.127
6.1030002 -2.0940001 -1.63
-20.936001 -6.7919998 -1.822
59.074001 -4.4619999 1.558
-39.299999 5.96 1.553
-6.0539999 12.699 -1.447
8.8400002 8.4449997 -1.816
7.382 23.497999 -0.43799999
-15.471 6.3509998 -2.056
79.230003 -9.0860004 0.458
-51.577 -13.431 -0.214
-68.200996 -25.125 1.313
23.878 -6.4629998 -1.3279999
56.636002 -8.2799997 0.118
-42.731998 -5.5679998 0.34299999
-5.2639999 13.956 -0.63999999
79.764 -5.8600001 0.45899999
-10.925 10.075 -0.183
3.5480001 -6.9899998 -0.046999998
9.8170004 9.165 -0.47099999
-5.9219999 8.9840002 0.37099999
-56.189999 -1.245 -2.618
6.6090002 10.59 -1.1849999
-12.082 9.0129995 0.086999997
16.044001 -7.8610001 -0.26100001
10.35 -10.245 -1.23
7.4809999 7.178 -1.883
-11.979 3.1719999 -1.965
-14.083 7.1440001 -2.0369999
15.803 0.52399999 -1.651
-19.312 4.289 -2.1159999
74.432999 -8.7270002 -0.84500003
0.676 24.493999 -0.741
19.6 -5.4250002 -1.431
2.849 13.604 -1.932
-21.177 2.1270001 -2.0209999
6.0349998 12.385 -1.814
61.638 -8.5380001 0.403
-1.714 -6.671 -0.51899999
16.587 -0.204 -1.64
-78.263 6.6929998 1.403
-12.685 -1.411 -1.902
-7.5549998 17.555 0.055
0.028000001 11.841 -1.478
4.8759999 7.0799999 -1.939
-42.675999 -3.8239999 -2.22
-11.026 8.5670004 0.59200001
10.315 10.96 -0.55199999
19.540001 -2.5050001 -1.61
-6.1399999 2.9000001 -1.898
13.967 1.449 -1.6950001
-4.1680002 17.247999 0.17900001
-18.349001 12.184 0.954
-25.465 -7.961 -1.9400001
-2.8469999 -6.3800001 -1.495
2.5350001 -0.50099999 -0.92299998
-1.444 5.625 -1.965
-18.639999 9.2550001 -0.84100002
30.552 8.1560001 1.278
47.382 7.9580002 1.303
4.7399998 -5.039 -1.536
16.809999 8.5489998 -0.96399999
1.3430001 15.32 -1.033
9.9829998 3.1389999 -1.809
18.103001 8.2959995 -1.756
-67.099998 3.8929999 -1.204
-58.974998 -18.812 1.91
-51.159 3.6359999 -2.697
-25.023001 1.155 -2.1010001
-2.1359999 4.0869999 -1.408
-17.556999 8.0970001 -2.063
-17.77 -4.895 -1.3839999
6.677 -0.139 -1.692
-48.540001 -2.8399999 -0.81400001
-31.909 2.2179999 -2.1559999
6.6680002 1.9119999 -1.762
6.0349998 11.257 -1.7589999
28.802999 8.1879997 0.16
-4.2420001 10.192 0.58200002
19.966999 8.2720003 -1.533
-8.0200005 9.5780001 0.398
-5.7519999 -5.5809999 -1.521
-1.214 12.795 -0.207
-52.507999 -14.114 -0.935
43.810001 -8.4610004 -0.41999999
76.300003 -8.8249998 1.376
-13.879 2.6340001 -1.967
2.901 19.103001 -0.064999998
16.02 -2.174 -1.5930001
-21.76 3.9660001 -2.108
-16.854 -4.4510002 -1.0829999
-13.827 4.559 -1.23
20.525999 -7.4770002 0.034000002
-0.796 33.971001 -1.503
-28.518 1.666 -2.0910001
32.57 4.2649999 -1.829
5.1479998 3.668 -1.901
6.0539999 15.154 -1.71
-13.997 5.5159998 -0.37599999
1.906 23.275999 -1.673
-60.985001 -2.6600001 1.136
8.8879995 9.5459995 -1.5599999
-5.1700001 -1.6059999 -1.779
4.9289999 10.485 -1.931
6.2379999 20.490999 0.27399999
35.598 3.7019999 -1.821
44.693001 7.9070001 0.34999999
-48.278 -4.1389999 0.36000001
-2.5929999 10.555 -0.079000004
13.075 -0.178 -1.653
6.6890001 16.815001 -0.26699999
6.0190001 13.879 0.72100002
-36.424999 4.6620002 -2.3239999
16.948 -2.836 -1.5930001
3.175 4.756 -1.988
8.6160002 -0.93400002 -1.655
11.243 0.67799997 -1.663
21.365999 8.2530003 -1.214
-1.777 15.296 -0.48100001
1.4349999 -5.8390002 -1.511
2.803 13.422 0.34599999
8.3310003 23.787001 0.0070000002
2.368 23.646 -2.4360001
2.829 11.928 -0.26899999
-1.069 4.6009998 -2.0369999
-58.491001 -18.459 0.111
39.873001 3.7679999 -1.807
-67.022003 6.4809999 0.102
-19.636 8.8199997 -2.0469999
-25.532 -6.75 -0.64099997
-53.535999 -3.1129999 1.4299999
10.283 4.6609998 -0.97799999
36.879002 -9.0430002 0.78500003
-13.902 -4.7290001 -1.679
57.574001 -3.2460001 -1.0039999
-43.713001 -3.6300001 -1.487
71.038002 -9.3870001 2.632
-46.477001 5.9559999 -2.4460001
-7.3829999 -4.743 -1.574
13.992 -9.0690002 -0.329
15.992 -4.0929999 -1.523
-1.243 5.677 -1.069
9.4720001 8.474 0.027000001
28.622999 -4.6680002 -1.437
-34.077 -2.4119999 -2.148
25.906 -1.5420001 -1.5829999
6.178 20.452 -1.636
-57.165001 -17.488001 1.5700001
-4.1459999 -6.9949999 -0.59799999
8.7019997 4.4910002 -1.122
7.6259999 0.60299999 -1.712
-14.134 3.7479999 -0.102
-0.16 10.383 -0.31799999
3.8989999 10.027 -1.9579999
-9.0319996 -2.665 -1.699
-46.717999 -2.905 -1.016
-7.6279998 9.552 -1.364
9.8190002 9.7939997 -1.1619999
-41.679001 5.8829999 -1.419
17.534 0.23199999 -1.63
-57.717999 6.7610002 1.092
9.3830004 1.406 -1.712
-5.4419999 9.8260002 -0.57099998
22.308001 -7.434 -1.127
14.512 -7.2979999 -0.80199999
-12.694 -6.9180002 -0.61400002
-43.048 5.928 -2.2539999
7.0900002 4.9169998 -1.946
3.675 -2.2290001 -1.6950001
-77.580002 6.632 -0.88599998
41.318001 4.8899999 -1.885
-1.7359999 5.1230001 -0.465
-47.209999 -12.22 -1.3559999
0.78100002 4.566 -1.9960001
-30.899 0.64099997 -2.076
-19.459999 12.184 0.98500001
47.493999 -8.1190004 -0.17399999
-13.299 -2.77 -0.73299998
50.571999 7.2199998 1.937
14.339 -0.68099999 -1.637
59.379002 -8.2600002 1.574
51.202 7.8470001 0.73100001
19.129999 -8.1110001 -0.461
-48.653 -11.293 -0.18799999
1.211 27.044001 -0.83999997
8.448 -7.645 -0.713
-6.9660001 -6.7059999 0.53600001
59.536999 -3.5969999 1.848
2.8199999 12.096 -1.969
-9.2309999 2.1440001 -1.911
-16.360001 3.927 -2.0699999
57.888 -4.2680001 -1.012
2.0039999 24.117001 -0.87300003
-5.8639998 5.0939999 -1.108
-67.507004 -2.6140001 -1.557
-48.555 -10.235 1.887
43.312 -8.5509996 1.214
-36.759998 13.093 1.529
35.486 -8.8879995 1.214
0.2 -4.9180002 -1.556
-0.391 -5.7880001 -1.505
-4.6599998 2.289 -1.853
-7.6890001 16.667 -1.272
-12.075 5.902 -2.0090001
2.832 12.944 -1.27
-25.823999 -8.6219997 -1.007
-5.849 -6.744 -0.56599998
-10.836 -0.30500001 -1.8789999
7.013 21.157 0.54699999
6 12.72 0.685
16.872999 9.2419996 -0.29699999
24.981001 -7.7909999 -0.63300002
-58.919998 6.5419998 -1.341
-43.124001 -5.9229999 1.2
-36.396 14.882 0.80599999
5.2459998 0.26899999 -1.723
-28.285 11.384 -0.034000002
20.163 -3.5120001 -1.558
5.9910002 8.6350002 -0.324
44.800999 -8.1149998 1.245
-15.495 4.3150001 -2.079
-10.845 -5.9489999 -1.553
-48.820999 -3.52 0.95200002
-14.972 3.586 -1.034
-0.43399999 4.5450001 -1.02
-7.039 -2.994 -1.649
15.197 6.7490001 -1.842
-5.2389998 -6.4450002 -1.484
57.999001 -8.2919998 0.116
58.875 -2.115 -1.03
47.661999 -7.9910002 1.8430001
-4.224 -2.03 -1.711
-45.331001 -2.8889999 -0.98000002
-47.991001 1.7460001 -2.5120001
77.681999 8.1219997 0.45300001
58.011002 -2.448 -1.012
-2.391 17.212 -0.352
-55.970001 5.039 -2.296
-46.898998 22.615 1.3940001
-60.66 6.349 -1.386
-21.843 12.19 1.0549999
-2.891 11.658 0.329
15.237 -2.78 -1.613
-57.402 -17.128 0.114
-10.855 -3.365 -1.679
6.9850001 17.004999 -1.489
1.8200001 7.7750001 -1.9579999
-37.334 11.328 0.146
5.0120001 1.5880001 -1.768
58.108002 -2.7119999 2.1760001
-23.969999 11.441 -0.81999999
-19.468 8.9650002 -1.0089999
36.853001 -8.6370001 -0.78200001
3.5109999 -7.0190001 -1.395
-8.2060003 -1.689 -1.817
10.479 -7.1890001 -0.20200001
3.9070001 3.2579999 -1.867
-54.202 7.0929999 -0.94099998
11.368 -2.3199999 -1.58
1.821 6.0050001 -1.9579999
-7.5450001 -6.0749998 -1.508
-7.007 11.402 -1.444
20.944 -5.6040001 -1.396
3.809 -3.1400001 -0.83099997
13.846 10.181 0.79000002
4.2729998 15.912 -2.023
-7.8200002 4.2399998 -1.375
-1.5779999 10.116 -0.93599999
-24.806999 -8.1789999 -1.413
-16.764999 -0.094999999 -1.9450001
19.304001 -8.3050003 0.41999999
0.098999999 11.973 0.32800001
-43.806 -6.7800002 0.65499997
-4.5560002 10.233 -0.228
-16.792999 1.998 -1.964
29.997 -7.698 -1.174
-1.785 -4.9990001 -1.577
-40.271999 18.989 0.13699999
-6.3800001 4.3000002 -2.0350001
-59.962002 -19.542 1.942
-2.6719999 5.1789999 -0.51599997
-0.87599999 13.852 -0.49399999
-41.583 -6.3099999 0.84799999
5.9809999 9.4619999 0.588
-43.499001 -9.5970001 -0.145
-12.156 -2.4100001 -0.79299998
-77.818001 -2.4549999 -1.427
4.9650002 -7.0310001 -0.28400001
-13.722 1.502 -1.9170001
-4.375 -6.448 -1.476
5.0830002 8.6560001 -1.936
1.156 15.128 -2.0179999
6.3299999 16.004999 -1.1799999
22.906 8.7980003 -0.74199998
6.0349998 13.803 -0.83399999
7.816 8.7510004 -0.66299999
7.3829999 8.4829998 -1.4450001
-2.5350001 -7.0689998 -0.44499999
48.556 -8.0959997 0.95700002
-10.281 2.763 -1.937
3.4130001 6.5079999 -1.939
-47.866001 5.9289999 -1.053
-49.832001 -12.113 0.72500002
33.889 2.6129999 -1.719
22.1 1.994 -1.707
2.8559999 16.291 -0.93599999
-5.289 -7.0159998 0.021
14.24 8.4779997 -0.142
-36.506001 12.569 0.79500002
18.944 1.506 -1.666
-9.0530005 8.6040001 -1.9809999
-12.867 -3.224 -1.739
10.322 12.133 0.57099998
-62.187 -21.025 2.0120001
-6.0689998 9.7840004 -1.148
-20.643999 -1.895 -1.9630001
12.156 9.6750002 -1.135
49.151001 -8.1339998 -0.493
-39.464001 19.701 -0.72000003
38.241001 -8.1590004 1.531
27.565001 -6.0669999 -1.393
2.526 25.108 -1.534
-42.277 -7.7719998 0.64200002
-21.882999 12.381 0.168
-13.896 -6.5599999 0.183
-23.275 12.232 1.098
-44.453999 6.0219998 -1.2309999
-28.642 8.7440004 -0.214
16.474001 -1.059 -1.631
-66.044998 6.3610001 -2.3540001
6.0289998 12.702 -1.008
11.055 -1.1440001 -1.64
11.325 -11.676 -1.104
-18.662001 2.122 -1.999
-60.971001 -20.221001 0.85600001
59.055 -2.3199999 1.554
-44.733002 -6.0570002 1.449
-11.725 -7.0970001 0.58499998
7.2529998 4.4899998 -1.229
-5.8330002 16.521999 0.26199999
17.941 8.3290005 0.050000001
71.124001 -8.6850004 0.094999999
15.337 8.6190004 0.17900001
15.386 -7.2119999 -0.033
14.701 -1.531 -1.615
16.781 -4.381 -1.503
-36.686001 6.348 0.77399999
-9.5649996 4.302 -2.029
-4.2490001 -4.8670001 -1.561
-14.739 3.9349999 -1.858
8.9440002 -7.5040002 -1.375
-6.5869999 15.688 0.25999999
-36.161999 11.832 0.59200001
-42.633999 5.881 -1.455
27.311001 2.154 -1.683
61.007999 -8.3879995 1.6109999
-47.234001 -12.174 -0.47799999
24.426001 3.1619999 -1.775
2.3239999 26.608 -0.64999998
24.02 10.072 -1.104
-52.639 -3.5250001 -1.171
-44.214001 -2.425 -2.3010001
-42.441002 -5.3140001 -1.165
-0.391 12.537 -0.66100001
-0.77399999 11.19 0.37799999
-8.6669998 -7.0279999 0.51499999
5.552 2.925 -1.821
-5.6630001 0.075999998 -1.808
20.518999 8.5240002 -0.912
45.942001 7.9829998 0.134
23.733 -7.7550001 1.053
43.929001 -8.2880001 -1.226
79.82 -3.7550001 -0.42399999
19.441999 -4.2750001 -1.51
3.53 7.9850001 -1.971
6.2069998 22.122999 0.986
-24.004999 12.929 -0.0089999996
12.513 2.0139999 -0.81599998
-16.826 12.099 -0.085000001
13.65 -4.0380001 -1.548
10.964 1.994 -1.105
-36.581001 9.9650002 0.58999997
-36.470001 6.0139999 -1.652
14.295 5.348 -1.859
-1.2690001 -4.2670002 -1.619
-36.387001 16.812 0.14399999
-7.2410002 -1.679 -1.738
-9.2659998 0.52899998 -1.869
18.176001 -5.4310002 -1.4299999
-17.341999 -0.84799999 -1.932
-8.5200005 9.0500002 -1.097
35.626999 -8.9499998 -0.565
29.538 -8.2580004 -0.77700001
6.2600002 4.8979998 -1.948
3.6440001 11.925 -1.978
24.284 10.271 0.28999999
11.19 8.3959999 -1.59
