# .PCD v0.7 - Point Cloud Data file format
VERSION 0.7
FIELDS x y z
SIZE 4 4 4
TYPE F F F
COUNT 1 1 1
WIDTH 1811
HEIGHT 1
VIEWPOINT 0 0 0 1 0 0 0
POINTS 1811
DATA ascii
4.0679998 8.7799997 -1.954
4.04 8.7919998 -1.954
4.0139999 8.809 -1.954
3.983 8.8140001 -1.9529999
3.9630001 8.8430004 -1.956
3.9549999 8.8610001 -1.959
3.9360001 8.8950005 -1.964
3.9070001 8.9040003 -1.964
3.8789999 8.9180002 -1.964
3.8510001 8.9280005 -1.964
3.8239999 8.9440002 -1.964
3.7969999 8.9589996 -1.965
3.7850001 8.9689999 -1.966
3.7590001 8.9860001 -1.967
3.737 9.0139999 -1.971
3.7060001 9.0190001 -1.969
3.6760001 9.0249996 -1.9680001
3.6489999 9.0419998 -1.969
3.622 9.0570002 -1.97
3.609 9.0640001 -1.971
3.5840001 9.085 -1.973
3.556 9.0979996 -1.973
3.5280001 9.1110001 -1.974
3.5020001 9.1289997 -1.975
3.467 9.1239996 -1.972
3.444 9.1470003 -1.974
3.4289999 9.1529999 -1.974
3.402 9.1669998 -1.975
3.3759999 9.1870003 -1.977
3.348 9.1990004 -1.978
3.322 9.2189999 -1.98
3.29 9.2200003 -1.978
3.26 9.2270002 -1.977
3.2490001 9.243 -1.98
3.214 9.2349997 -1.975
3.191 9.2629995 -1.98
3.164 9.2790003 -1.9809999
3.1300001 9.276 -1.978
3.1040001 9.2950001 -1.98
3.0780001 9.3120003 -1.982
3.0580001 9.302 -1.978
3.029 9.3109999 -1.978
3.0039999 9.3339996 -1.9809999
2.9690001 9.3269997 -1.977
2.941 9.3400002 -1.978
2.918 9.3690004 -1.983
2.8829999 9.3620005 -1.979
2.869 9.368 -1.98
2.8440001 9.3920002 -1.983
2.8099999 9.3859997 -1.98
2.7820001 9.3999996 -1.9809999
2.753 9.4110003 -1.9809999
2.724 9.4189997 -1.9809999
2.6949999 9.4300003 -1.982
2.6689999 9.4530001 -1.985
2.651 9.4440002 -1.982
2.6229999 9.46 -1.984
2.595 9.474 -1.985
2.5610001 9.467 -1.982
2.5339999 9.4860001 -1.984
2.506 9.4980001 -1.985
2.473 9.4960003 -1.983
2.4619999 9.5150003 -1.9859999
2.4349999 9.533 -1.988
2.401 9.5249996 -1.985
2.3789999 9.5629997 -1.992
2.348 9.566 -1.9910001
2.313 9.5550003 -1.987
2.2850001 9.5699997 -1.988
2.2720001 9.5830002 -1.99
2.2390001 9.5780001 -1.988
2.21 9.5909996 -1.989
2.184 9.6149998 -1.993
2.1489999 9.6009998 -1.988
2.1210001 9.6169996 -1.99
2.0899999 9.6199999 -1.99
2.073 9.6140003 -1.988
2.0439999 9.6260004 -1.989
2.0139999 9.6339998 -1.989
1.983 9.6389999 -1.989
1.9529999 9.6429996 -1.988
1.926 9.6660004 -1.992
1.892 9.6549997 -1.988
1.877 9.6560001 -1.988
1.849 9.6750002 -1.9910001
1.817 9.6709995 -1.989
1.788 9.6890001 -1.9910001
1.7589999 9.6999998 -1.993
1.726 9.6940002 -1.99
1.696 9.7010002 -1.99
1.681 9.7060003 -1.9910001
1.65 9.7069998 -1.99
1.6210001 9.7200003 -1.992
1.591 9.7290001 -1.993
1.561 9.7379999 -1.993
1.529 9.7349997 -1.992
1.5 9.7489996 -1.994
1.484 9.7460003 -1.993
1.455 9.7600002 -1.995
1.423 9.7609997 -1.994
1.3940001 9.7729998 -1.995
1.362 9.7709999 -1.994
1.3329999 9.783 -1.9960001
1.299 9.7659998 -1.9910001
1.286 9.7840004 -1.995
1.253 9.7700005 -1.9910001
1.223 9.7779999 -1.992
1.192 9.7779999 -1.9910001
1.161 9.7840004 -1.9910001
1.131 9.7930002 -1.993
1.102 9.8100004 -1.995
1.071 9.816 -1.9960001
1.0549999 9.8129997 -1.995
1.026 9.8299999 -1.998
0.995 9.8310003 -1.998
0.963 9.8249998 -1.995
0.93199998 9.8280001 -1.995
0.90100002 9.8330002 -1.9960001
0.87 9.8310003 -1.995
0.85600001 9.8500004 -1.999
0.824 9.8369999 -1.995
0.79400003 9.8540001 -1.998
0.76099998 9.835 -1.994
0.73199999 9.8529997 -1.997
0.70200002 9.868 -2
0.67000002 9.8590002 -1.998
0.65499997 9.8739996 -2.0009999
0.62400001 9.8780003 -2.0009999
0.59299999 9.8809996 -2.0009999
0.56300002 9.8850002 -2.0020001
0.53100002 9.8850002 -2.0009999
0.5 9.8850002 -2.0009999
0.46900001 9.882 -2
0.454 9.9040003 -2.0050001
0.42300001 9.9020004 -2.0039999
0.39199999 9.8970003 -2.003
0.361 9.8970003 -2.0020001
0.33000001 9.8999996 -2.003
0.29800001 9.901 -2.003
0.26699999 9.8999996 -2.0020001
0.252 9.8940001 -2.0009999
0.221 9.8929996 -2.0009999
0.19 9.9049997 -2.003
0.155 9.6280003 -1.943
0.122 9.3629999 -1.886
0.092 9.3669996 -1.887
0.063000001 9.3710003 -1.888
0.048 9.3649998 -1.887
0.018999999 9.3669996 -1.887
-0.011 9.3669996 -1.887
-0.039999999 9.3690004 -1.888
-0.068999998 9.3730001 -1.888
-0.098999999 9.3690004 -1.888
-0.12800001 9.3699999 -1.888
-0.14300001 9.3699999 -1.888
-0.17200001 9.3660002 -1.887
-0.20200001 9.3669996 -1.888
-0.23100001 9.3660002 -1.888
-0.26100001 9.3789997 -1.891
-0.29100001 9.3769999 -1.89
-0.31999999 9.3719997 -1.8890001
-0.33500001 9.3769999 -1.891
-0.36399999 9.3780003 -1.891
-0.39399999 9.3730001 -1.89
-0.42300001 9.3769999 -1.891
-0.45300001 9.3800001 -1.892
-0.48199999 9.3780003 -1.892
-0.51200002 9.3789997 -1.893
-0.54100001 9.375 -1.892
-0.55599999 9.3780003 -1.893
-0.58600003 9.3800001 -1.8940001
-0.616 9.3800001 -1.8940001
-0.64600003 9.3859997 -1.896
-0.67500001 9.3780003 -1.895
-0.70499998 9.3839998 -1.896
-0.72100002 9.4020004 -1.901
-0.74199998 9.2969999 -1.878
-7.3179998 6.684 -2.0039999
-7.3429999 6.665 -2.0050001
-7.3699999 6.6469998 -2.007
-7.3839998 6.6170001 -2.0050001
-7.4060001 6.5949998 -2.0050001
-7.4369998 6.5809999 -2.0079999
-7.4310002 6.5549998 -2.003
-7.4439998 6.5250001 -2.0009999
-7.4699998 6.507 -2.003
-7.4850001 6.4780002 -2.0009999
-7.5019999 6.4520001 -2.0009999
-7.4569998 6.3730001 -1.982
-8.29 4.7160001 -1.924
-8.2449999 4.6729999 -1.911
-8.2220001 4.6259999 -1.901
-8.7679996 4.895 -2.0320001
-8.8669996 4.914 -2.053
-8.9139996 4.9029999 -2.0599999
-8.9799995 4.9029999 -2.073
-9.0150003 4.8850002 -2.0769999
-9.04 4.8800001 -2.082
-9.0649996 4.8569999 -2.0840001
-9.0790005 4.8280001 -2.0840001
-9.0609999 4.7820001 -2.076
-9.0710001 4.7509999 -2.0739999
-9.0790005 4.7179999 -2.073
-9.0640001 4.6750002 -2.066
-9.0640001 4.6570001 -2.0639999
-9.0749998 4.6269999 -2.063
-9.0860004 4.5960002 -2.062
-9.0959997 4.5650001 -2.0610001
-9.0939999 4.5289998 -2.0569999
-9.0939999 4.493 -2.0539999
-9.0939999 4.4580002 -2.05
-9.0909996 4.4380002 -2.0480001
-9.1009998 4.408 -2.0469999
-9.1110001 4.3779998 -2.046
-9.1020002 4.3379998 -2.0409999
-9.1260004 4.3150001 -2.043
-9.1219997 4.2779999 -2.039
-9.118 4.2410002 -2.0350001
-9.099 4.198 -2.027
-9.1160002 4.1880002 -2.03
-9.1149998 4.1529999 -2.027
-9.1049995 4.1139998 -2.0209999
-9.1300001 4.0910001 -2.0239999
-9.132 4.0570002 -2.0220001
-9.1269999 4.0209999 -2.017
-9.1129999 3.9809999 -2.0109999
-9.0959997 3.9560001 -2.006
-9.1210003 3.9330001 -2.0079999
-9.1219997 3.9000001 -2.006
-9.1020002 3.8570001 -1.998
-9.1070004 3.826 -1.997
-9.1210003 3.7980001 -1.997
-9.1029997 3.757 -1.99
-9.0909996 3.7360001 -1.9859999
-9.0760002 3.6960001 -1.98
-9.0640001 3.658 -1.974
-9.0620003 3.625 -1.972
-9.0869999 3.6010001 -1.974
-9.0939999 3.5710001 -1.974
-9.0539999 3.523 -1.962
-9.0670004 3.5109999 -1.964
-9.1000004 3.4909999 -1.969
-9.0889997 3.454 -1.964
-9.085 3.4200001 -1.96
-9.0699997 3.382 -1.954
-9.132 3.3729999 -1.966
-9.1190004 3.335 -1.961
-9.0649996 3.3 -1.947
-9.125 3.289 -1.959
-9.1239996 3.256 -1.956
-9.1359997 3.2279999 -1.956
-9.1230001 3.191 -1.951
-9.1140003 3.1559999 -1.947
-9.1459999 3.135 -1.952
-9.1490002 3.1199999 -1.951
-9.151 3.089 -1.95
-9.1569996 3.059 -1.949
-9.1540003 3.026 -1.946
-9.1750002 3.0009999 -1.948
-9.1780005 2.97 -1.947
-9.1859999 2.941 -1.947
-9.1940002 2.927 -1.948
-9.1999998 2.8970001 -1.947
-9.1920004 2.8629999 -1.943
-9.2049999 2.835 -1.944
-9.2150002 2.8069999 -1.944
-9.2019997 2.7709999 -1.939
-9.2290001 2.7479999 -1.943
-9.2180004 2.7290001 -1.9400001
-9.1780005 2.6860001 -1.929
-9.2130003 2.665 -1.9349999
-9.2189999 2.635 -1.9349999
-9.1990004 2.598 -1.928
-9.2410002 2.579 -1.936
-9.2279997 2.5439999 -1.931
-9.1969995 2.52 -1.923
-9.2370005 2.4990001 -1.9299999
-9.2270002 2.4660001 -1.927
-9.2309999 2.4360001 -1.926
-9.2180004 2.402 -1.921
-9.2119999 2.369 -1.918
-9.191 2.3329999 -1.9119999
-9.2419996 2.3310001 -1.9220001
-9.2150002 2.293 -1.915
-9.2279997 2.266 -1.916
-9.2259998 2.234 -1.914
-9.2370005 2.2060001 -1.915
-9.2399998 2.1760001 -1.914
-9.2309999 2.1440001 -1.911
-9.21 2.1240001 -1.905
-9.2089996 2.0929999 -1.904
-9.1890001 2.0580001 -1.898
-9.2180004 2.0339999 -1.903
-9.1899996 1.998 -1.895
-9.2110004 1.972 -1.899
-9.2119999 1.942 -1.897
-9.2110004 1.927 -1.896
-9.1999998 1.8940001 -1.893
-9.2060003 1.865 -1.893
-9.2329998 1.841 -1.897
-9.2080002 1.806 -1.891
-9.2040005 1.775 -1.888
-9.2399998 1.752 -1.895
-9.2609997 1.725 -1.899
-9.2309999 1.705 -1.891
-9.1960001 1.669 -1.883
-9.2530003 1.649 -1.8940001
-9.2600002 1.62 -1.8940001
-9.2670002 1.591 -1.895
-9.2390003 1.557 -1.888
-9.2259998 1.525 -1.8839999
-9.2639999 1.516 -1.891
-9.2390003 1.482 -1.885
-9.25 1.454 -1.886
-9.2469997 1.424 -1.885
-9.2629995 1.397 -1.887
-9.2650003 1.367 -1.887
-9.2290001 1.3329999 -1.878
-9.2729998 1.324 -1.887
-9.2580004 1.2920001 -1.883
-9.1789999 1.252 -1.865
-9.2539997 1.232 -1.88
-9.2370005 1.201 -1.876
-9.2329998 1.171 -1.874
-9.2399998 1.142 -1.875
-9.2620001 1.13 -1.8789999
-9.2259998 1.096 -1.8710001
-9.2609997 1.071 -1.878
-9.2460003 1.04 -1.874
-9.2419996 1.01 -1.872
-9.2370005 0.98000002 -1.87
-9.2519999 0.95200002 -1.873
-9.257 0.93800002 -1.874
-9.2539997 0.90799999 -1.872
-9.2460003 0.87800002 -1.87
-9.2440004 0.84899998 -1.869
-9.2609997 0.82099998 -1.872
-9.2609997 0.792 -1.872
-9.2340002 0.75999999 -1.865
-9.2019997 0.74299997 -1.858
-9.2200003 0.71600002 -1.862
-9.2229996 0.68699998 -1.862
-9.2150002 0.65700001 -1.859
-9.2089996 0.62699997 -1.858
-9.2460003 0.60100001 -1.865
-9.2639999 0.57300001 -1.869
-9.2740002 0.55900002 -1.8710001
-9.2659998 0.52899998 -1.869
-9.2480001 0.49900001 -1.865
-9.2790003 0.47099999 -1.8710001
-9.2530003 0.44100001 -1.865
-9.2550001 0.412 -1.865
-9.2460003 0.382 -1.863
-9.2740002 0.36899999 -1.869
-9.2559996 0.33899999 -1.865
-9.2489996 0.31 -1.863
-9.2460003 0.28 -1.862
-9.2720003 0.252 -1.867
-9.2449999 0.222 -1.862
-9.2419996 0.193 -1.8609999
-9.2379999 0.17900001 -1.86
-9.2309999 0.149 -1.858
-9.224 0.12 -1.857
-9.2220001 0.090999998 -1.8559999
-9.2519999 0.063000001 -1.862
-9.2379999 0.033 -1.859
-9.2299995 0.0040000002 -1.858
-9.2320004 -0.0099999998 -1.858
-9.2379999 -0.039000001 -1.859
-9.2069998 -0.068000004 -1.853
-9.224 -0.097000003 -1.857
-9.2019997 -0.126 -1.852
-9.368 -0.14300001 -1.888
-9.3640003 -0.17200001 -1.887
-9.3940001 -0.20299999 -1.893
-9.3760004 -0.23199999 -1.89
-9.3660002 -0.24600001 -1.888
-9.3459997 -0.27500001 -1.883
-9.3859997 -0.30599999 -1.892
-9.3570004 -0.33399999 -1.886
-9.3409996 -0.36300001 -1.883
-9.3039999 -0.391 -1.875
-9.3149996 -0.41999999 -1.878
-9.3039999 -0.435 -1.876
-9.3559999 -0.46700001 -1.887
-9.3190002 -0.49399999 -1.88
-9.2860003 -0.52100003 -1.873
-9.29 -0.551 -1.874
-9.3100004 -0.58099997 -1.8789999
-9.2889996 -0.60900003 -1.875
-9.3190002 -0.62599999 -1.881
-9.2989998 -0.65399998 -1.878
-9.2840004 -0.68199998 -1.875
-9.2910004 -0.71200001 -1.877
-9.2869997 -0.741 -1.876
-9.2650003 -0.76899999 -1.872
-9.2670002 -0.79799998 -1.873
-9.2440004 -0.81099999 -1.868
-9.2819996 -0.84399998 -1.877
-9.2600002 -0.87099999 -1.873
-9.2510004 -0.89899999 -1.872
-9.2620001 -0.93000001 -1.875
-9.2440004 -0.95700002 -1.8710001
-9.2410002 -0.986 -1.8710001
-9.2159996 -0.99800003 -1.8660001
-9.2030001 -1.026 -1.864
-9.2320004 -1.059 -1.8710001
-9.2060003 -1.085 -1.8660001
-9.2019997 -1.114 -1.8660001
-9.2119999 -1.145 -1.869
-9.191 -1.171 -1.865
-9.1800003 -1.1849999 -1.863
-9.1660004 -1.212 -1.8609999
-9.1619997 -1.2410001 -1.8609999
-9.1289997 -1.266 -1.855
-9.1370001 -1.296 -1.857
-9.1389999 -1.325 -1.859
-9.165 -1.359 -1.865
-9.1090002 -1.365 -1.854
-9.0950003 -1.392 -1.852
-9.0699997 -1.4170001 -1.847
-9.1020002 -1.452 -1.855
-9.1009998 -1.4809999 -1.8559999
-9.0959997 -1.5089999 -1.8559999
-9.0760002 -1.535 -1.852
-9.1040001 -1.5549999 -1.859
-9.0900002 -1.582 -1.857
-9.0600004 -1.6059999 -1.852
-9.059 -1.635 -1.852
-9.0570002 -1.664 -1.853
-9.0459995 -1.692 -1.852
-9.0080004 -1.714 -1.845
-9.007 -1.728 -1.845
-8.9890003 -1.7539999 -1.842
-8.9519997 -1.776 -1.836
-8.8260002 -1.779 -1.809
-8.6829996 -1.778 -1.779
-8.5579996 -1.781 -1.753
-8.5279999 -1.802 -1.747
-8.5100002 -1.812 -1.744
-8.4910002 -1.836 -1.7410001
-8.4540005 -1.8559999 -1.734
-8.441 -1.881 -1.733
-8.3999996 -1.899 -1.725
-8.3850002 -1.924 -1.723
-8.3879995 -1.952 -1.725
-8.3640003 -1.96 -1.721
-8.3620005 -1.988 -1.721
-8.3439999 -2.0109999 -1.719
-8.3249998 -2.0339999 -1.716
-8.3070002 -2.0569999 -1.7130001
-8.3039999 -2.0840001 -1.714
-8.2939997 -2.109 -1.7130001
-8.2810001 -2.1199999 -1.711
-8.2840004 -2.148 -1.7130001
-8.2639999 -2.171 -1.71
-8.2550001 -2.1960001 -1.71
-8.2399998 -2.22 -1.7079999
-8.2200003 -2.2420001 -1.705
-8.2130003 -2.2679999 -1.705
-8.2209997 -2.2839999 -1.7079999
-8.1990004 -2.306 -1.705
-8.184 -2.329 -1.7029999
-8.1899996 -2.359 -1.706
-8.1599998 -2.378 -1.701
-8.1630001 -2.4070001 -1.7029999
-8.1459999 -2.4300001 -1.701
-8.1370001 -2.441 -1.7
-8.118 -2.4630001 -1.697
-8.1199999 -2.4909999 -1.7
-8.0930004 -2.5109999 -1.6950001
-8.0780001 -2.5339999 -1.694
-8.0719995 -2.5599999 -1.694
-8.0489998 -2.5810001 -1.691
-8.033 -2.5899999 -1.688
-8.0270004 -2.615 -1.689
-7.9970002 -2.6329999 -1.684
-7.9809999 -2.6559999 -1.682
-7.9780002 -2.6830001 -1.683
-7.9619999 -2.7049999 -1.682
-7.9520001 -2.73 -1.681
-7.9359999 -2.7520001 -1.679
-7.9130001 -2.7579999 -1.675
-7.9039998 -2.783 -1.675
-7.901 -2.8099999 -1.676
-7.8769999 -2.829 -1.673
-7.8610001 -2.8510001 -1.671
-7.8559999 -2.8770001 -1.6720001
-7.8429999 -2.901 -1.671
-7.8260002 -2.908 -1.668
-7.8070002 -2.9289999 -1.666
-7.796 -2.9530001 -1.666
-7.783 -2.9760001 -1.665
-7.7719998 -3 -1.665
-7.763 -3.0239999 -1.665
-7.737 -3.0420001 -1.661
-7.7360001 -3.056 -1.6619999
-7.7189999 -3.0769999 -1.66
-7.7049999 -3.0999999 -1.659
-7.6869998 -3.1199999 -1.6569999
-7.664 -3.1389999 -1.654
-7.6630001 -3.1670001 -1.656
-7.6500001 -3.1900001 -1.655
-7.645 -3.2019999 -1.655
-7.6329999 -3.2249999 -1.655
-7.612 -3.244 -1.653
-7.5929999 -3.2639999 -1.65
-7.5890002 -3.2909999 -1.652
-7.579 -3.3150001 -1.652
-7.572 -3.3399999 -1.653
-7.5650001 -3.3510001 -1.653
-7.5440001 -3.3699999 -1.65
-7.5310001 -3.3929999 -1.65
-7.5120001 -3.4130001 -1.648
-7.506 -3.4389999 -1.649
-7.4850001 -3.457 -1.646
-7.4759998 -3.4820001 -1.647
-7.4619999 -3.4890001 -1.645
-7.4489999 -3.5120001 -1.6440001
-7.427 -3.53 -1.642
-7.4159999 -3.5539999 -1.642
-7.3940001 -3.572 -1.6390001
-7.381 -3.5940001 -1.6390001
-7.3629999 -3.6140001 -1.637
-7.348 -3.6210001 -1.635
-7.3299999 -3.641 -1.633
-7.3119998 -3.6600001 -1.632
-7.2930002 -3.6789999 -1.63
-7.29 -3.707 -1.632
-7.27 -3.7249999 -1.63
-7.2529998 -3.7449999 -1.6289999
-7.2490001 -3.7579999 -1.6289999
-7.2319999 -3.7780001 -1.628
-7.2129998 -3.7969999 -1.626
-7.1989999 -3.8180001 -1.626
-7.1789999 -3.836 -1.624
-7.1609998 -3.8559999 -1.622
-7.1469998 -3.878 -1.622
-7.138 -3.8870001 -1.6210001
-7.1139998 -3.9030001 -1.618
-7.105 -3.927 -1.619
-7.086 -3.9449999 -1.617
-7.0830002 -3.973 -1.62
-7.0640001 -3.9920001 -1.618
-7.0510001 -4.0139999 -1.618
-7.0419998 -4.0229998 -1.617
-7.0219998 -4.0409999 -1.6160001
-7.0149999 -4.066 -1.617
-6.9899998 -4.0809999 -1.614
-6.9699998 -4.099 -1.612
-6.9559999 -4.1199999 -1.612
-6.9380002 -4.1389999 -1.6109999
-6.9310002 -4.1500001 -1.6109999
-6.9169998 -4.171 -1.61
-6.8969998 -4.1880002 -1.608
-6.8769999 -4.2059999 -1.607
-6.8540001 -4.2210002 -1.604
-6.8369999 -4.2410002 -1.603
-6.8239999 -4.2620001 -1.603
-6.8060002 -4.2649999 -1.6
-6.7849998 -4.283 -1.599
-6.757 -4.2940001 -1.595
-6.7470002 -4.3179998 -1.596
-6.73 -4.3369999 -1.595
-6.7150002 -4.3569999 -1.595
-6.6939998 -4.3740001 -1.5930001
-6.6830001 -4.381 -1.592
-6.6659999 -4.4000001 -1.591
-6.6500001 -4.4200001 -1.59
-6.6350002 -4.4390001 -1.59
-6.6209998 -4.46 -1.59
-6.5970001 -4.474 -1.587
-6.5809999 -4.494 -1.587
-6.5630002 -4.4959998 -1.584
-6.5500002 -4.5180001 -1.585
-6.5279999 -4.533 -1.582
-6.5170002 -4.5560002 -1.5829999
-6.4959998 -4.572 -1.582
-6.474 -4.5869999 -1.58
-6.4660001 -4.6110001 -1.581
-6.4520001 -4.6170001 -1.58
-6.4359999 -4.6360002 -1.579
-6.4219999 -4.6560001 -1.579
-6.408 -4.678 -1.58
-6.402 -4.7030001 -1.582
-6.381 -4.7189999 -1.58
-6.369 -4.7410002 -1.581
-6.355 -4.7470002 -1.579
-6.3429999 -4.7690001 -1.58
-6.3249998 -4.7859998 -1.579
-6.3119998 -4.8070002 -1.58
-6.29 -4.822 -1.5779999
-6.2670002 -4.836 -1.576
-6.2490001 -4.8530002 -1.575
-6.2350001 -4.8579998 -1.573
-6.2140002 -4.8730001 -1.572
-6.1919999 -4.888 -1.5700001
-6.177 -4.9070001 -1.5700001
-6.1589999 -4.9239998 -1.569
-6.1399999 -4.941 -1.568
-6.138 -4.9710002 -1.572
-6.1240001 -4.9759998 -1.5700001
-6.1090002 -4.9949999 -1.5700001
-6.0910001 -5.013 -1.5700001
-6.0650001 -5.0240002 -1.567
-6.0479999 -5.0409999 -1.566
-6.02 -5.0500002 -1.563
-6.02 -5.0830002 -1.568
-5.993 -5.0760002 -1.562
-5.9759998 -5.0939999 -1.562
-5.9640002 -5.1160002 -1.563
-5.9359999 -5.125 -1.5599999
-5.927 -5.1500001 -1.562
-5.9169998 -5.1729999 -1.564
-5.8899999 -5.1830001 -1.561
-5.882 -5.1919999 -1.561
-5.8730001 -5.217 -1.563
-5.8449998 -5.2249999 -1.559
-5.829 -5.243 -1.559
-5.8169999 -5.2659998 -1.561
-5.783 -5.2680001 -1.556
-5.7600002 -5.2810001 -1.554
-5.7659998 -5.303 -1.558
-5.7329998 -5.3049998 -1.553
-5.7199998 -5.3270001 -1.554
-5.7080002 -5.349 -1.556
-5.6719999 -5.3499999 -1.55
-5.6529999 -5.3649998 -1.549
-5.6490002 -5.395 -1.553
-5.6230001 -5.3870001 -1.548
-5.605 -5.4039998 -1.548
-5.5949998 -5.428 -1.55
-5.5619998 -5.4299998 -1.545
-5.5469999 -5.4489999 -1.546
-5.5409999 -5.4780002 -1.549
-5.5079999 -5.48 -1.544
-5.5050001 -5.494 -1.546
-5.4889998 -5.513 -1.546
-5.4549999 -5.513 -1.541
-5.4349999 -5.527 -1.54
-5.4369998 -5.5640001 -1.546
-5.4000001 -5.5609999 -1.54
-5.3829999 -5.5780001 -1.54
-5.3779998 -5.5910001 -1.5420001
-5.3499999 -5.5970001 -1.538
-5.323 -5.6030002 -1.535
-5.3189998 -5.6339998 -1.54
-5.2859998 -5.6350002 -1.535
-5.2690001 -5.652 -1.535
-5.2589998 -5.677 -1.538
-5.2329998 -5.6669998 -1.5319999
-5.2119999 -5.6799998 -1.531
-5.1999998 -5.7020001 -1.533
-5.1719999 -5.7080002 -1.53
-5.1620002 -5.7329998 -1.5319999
-5.1440001 -5.75 -1.5319999
-5.1129999 -5.7509999 -1.528
-5.1030002 -5.7579999 -1.528
-5.0910001 -5.7810001 -1.53
-5.0599999 -5.7820001 -1.526
-5.0419998 -5.7979999 -1.526
-5.0279999 -5.8179998 -1.527
-5.0040002 -5.8280001 -1.525
-4.9860001 -5.8439999 -1.525
-4.9829998 -5.8590002 -1.527
-4.9559999 -5.8639998 -1.525
-4.9320002 -5.8740001 -1.523
-4.9130001 -5.888 -1.522
-4.8870001 -5.8940001 -1.52
-4.868 -5.9089999 -1.52
-4.848 -5.9229999 -1.5190001
-4.8429999 -5.9349999 -1.521
-4.8210001 -5.947 -1.52
-4.8039999 -5.9640002 -1.52
-4.7800002 -5.973 -1.5190001
-4.7639999 -5.9910002 -1.5190001
-4.7480001 -6.0089998 -1.52
-4.7199998 -6.013 -1.517
-4.7129998 -6.0240002 -1.518
-4.6890001 -6.0320001 -1.517
-4.671 -6.0469999 -1.517
-4.6500001 -6.0599999 -1.516
-4.6279998 -6.0700002 -1.515
-4.6040001 -6.0780001 -1.513
-4.5840001 -6.0910001 -1.513
-4.5760002 -6.1009998 -1.5140001
-4.5619998 -6.1220002 -1.515
-4.5409999 -6.1350002 -1.515
-4.5180001 -6.1430001 -1.513
-4.4970002 -6.1550002 -1.513
-4.4710002 -6.1599998 -1.51
-4.4489999 -6.171 -1.5089999
-4.4380002 -6.1760001 -1.5089999
-4.4120002 -6.1799998 -1.506
-4.3979998 -6.2020001 -1.5089999
-4.375 -6.211 -1.507
-4.3559999 -6.2249999 -1.507
-4.3400002 -6.243 -1.5089999
-4.316 -6.2509999 -1.507
-4.3060002 -6.257 -1.507
-4.2820001 -6.2639999 -1.505
-4.2620001 -6.2779999 -1.505
-4.2399998 -6.2880001 -1.5039999
-4.2129998 -6.29 -1.501
-4.1939998 -6.3049998 -1.502
-4.177 -6.323 -1.503
-4.1690001 -6.3309999 -1.5039999
-4.1399999 -6.3309999 -1.5
-4.1149998 -6.336 -1.498
-4.098 -6.3530002 -1.499
-4.079 -6.368 -1.5
-4.0500002 -6.3660002 -1.4960001
-4.026 -6.3720002 -1.494
-4.0209999 -6.3860002 -1.4960001
-3.997 -6.3920002 -1.495
-3.97 -6.395 -1.492
-3.9530001 -6.4120002 -1.493
-3.925 -6.4109998 -1.49
-3.9130001 -6.4369998 -1.493
-3.8859999 -6.4380002 -1.4910001
-3.8759999 -6.4439998 -1.4910001
-3.859 -6.4629998 -1.492
-3.832 -6.4629998 -1.489
-3.816 -6.4819999 -1.4910001
-3.7869999 -6.48 -1.488
-3.766 -6.4899998 -1.487
-3.7449999 -6.5 -1.487
-3.747 -6.5279999 -1.492
-3.717 -6.5229998 -1.488
-3.694 -6.5310001 -1.487
-3.677 -6.5479999 -1.488
-3.6459999 -6.5409999 -1.484
-3.628 -6.5570002 -1.485
-3.6110001 -6.5749998 -1.487
-3.5969999 -6.5739999 -1.485
-3.573 -6.579 -1.483
-3.5580001 -6.6020002 -1.4859999
-3.529 -6.598 -1.483
-3.5139999 -6.619 -1.485
-3.4920001 -6.6279998 -1.485
-3.4619999 -6.6199999 -1.48
-3.4530001 -6.6290002 -1.4809999
-3.438 -6.6500001 -1.483
-3.4059999 -6.6399999 -1.478
-3.391 -6.6630001 -1.4809999
-3.375 -6.6820002 -1.483
-3.348 -6.6810002 -1.48
-3.3269999 -6.691 -1.48
-3.3239999 -6.7119999 -1.484
-3.293 -6.7030001 -1.48
-3.2720001 -6.7119999 -1.479
-3.2609999 -6.743 -1.484
-3.2360001 -6.7459998 -1.483
-3.211 -6.7490001 -1.4809999
-3.1949999 -6.77 -1.483
-3.175 -6.756 -1.479
-3.1619999 -6.7810001 -1.483
-3.142 -6.7950001 -1.483
-3.118 -6.7989998 -1.482
-3.0969999 -6.809 -1.482
-3.079 -6.8280001 -1.484
-3.0510001 -6.8210001 -1.48
-3.0350001 -6.8150001 -1.478
-3.0220001 -6.8429999 -1.482
-2.993 -6.836 -1.478
-2.9760001 -6.8559999 -1.4809999
-2.957 -6.8709998 -1.482
-2.9319999 -6.8709998 -1.48
-2.9119999 -6.8860002 -1.4809999
-2.9070001 -6.9029999 -1.484
-2.881 -6.901 -1.482
-2.865 -6.9250002 -1.485
-2.8499999 -6.9499998 -1.489
-2.826 -6.954 -1.488
-2.8050001 -6.9640002 -1.488
-2.7809999 -6.9689999 -1.487
-2.767 -6.9650002 -1.485
-2.7460001 -6.9770002 -1.4859999
-2.723 -6.9819999 -1.485
-2.7019999 -6.994 -1.4859999
-2.684 -7.013 -1.488
-2.6619999 -7.0219998 -1.488
-2.6389999 -7.027 -1.488
-2.6289999 -7.0339999 -1.488
-2.609 -7.046 -1.489
-2.589 -7.0619998 -1.4910001
-2.573 -7.0879998 -1.495
-2.552 -7.098 -1.4960001
-2.5309999 -7.1100001 -1.4960001
-2.5120001 -7.1290002 -1.499
-2.4979999 -7.1230001 -1.497
-2.4549999 -7.0700002 -1.483
-2.4579999 -7.152 -1.5
-2.3169999 -7.1430001 -1.488
-2.2950001 -7.1500001 -1.488
-2.2690001 -7.1459999 -1.4859999
-2.247 -7.1529999 -1.4859999
-2.221 -7.1490002 -1.483
-2.198 -7.1560001 -1.483
-2.1830001 -7.1469998 -1.48
-2.072 -6.855 -1.414
-2.0469999 -6.8509998 -1.411
-2.023 -6.8499999 -1.41
-2.0020001 -6.8559999 -1.41
-1.978 -6.8559999 -1.408
-1.966 -6.8540001 -1.4069999
-1.942 -6.8530002 -1.405
-1.918 -6.849 -1.403
-1.896 -6.8509998 -1.402
-1.872 -6.848 -1.4
-1.85 -6.8520002 -1.4
-1.8279999 -6.8579998 -1.4
-1.816 -6.855 -1.399
-1.783 -6.8189998 -1.3890001
-1.735 -6.7160001 -1.365
-1.7130001 -6.7199998 -1.365
-1.6900001 -6.7160001 -1.363
-1.671 -6.7319999 -1.365
-1.653 -6.7490001 -1.368
-1.6670001 -6.8540001 -1.391
-1.645 -6.8590002 -1.391
-1.622 -6.8590002 -1.3890001
-1.601 -6.8639998 -1.3890001
-1.579 -6.869 -1.3890001
-1.556 -6.8639998 -1.387
-1.535 -6.8730001 -1.388
-1.524 -6.8740001 -1.388
-1.503 -6.882 -1.3890001
-1.478 -6.8730001 -1.386
-1.4579999 -6.882 -1.386
-1.432 -6.8670001 -1.382
-1.409 -6.8639998 -1.381
-1.387 -6.8649998 -1.38
-1.375 -6.8629999 -1.3789999
-1.352 -6.8610001 -1.378
-1.332 -6.8709998 -1.3789999
-1.309 -6.8699999 -1.378
-1.286 -6.8660002 -1.376
-1.266 -6.8800001 -1.378
-1.245 -6.8839998 -1.378
-1.235 -6.8909998 -1.3789999
-1.2130001 -6.8909998 -1.378
-1.192 -6.8990002 -1.3789999
-1.168 -6.8930001 -1.377
-1.148 -6.9029999 -1.378
-1.126 -6.9060001 -1.378
-1.1 -6.8829999 -1.373
-1.091 -6.8959999 -1.375
-1.0700001 -6.9050002 -1.376
-1.0470001 -6.8969998 -1.374
-1.023 -6.8870001 -1.3710001
-1.0039999 -6.9089999 -1.375
-0.98100001 -6.901 -1.373
-0.958 -6.8959999 -1.3710001
-0.949 -6.9070001 -1.373
-0.92400002 -6.8870001 -1.368
-0.903 -6.8969998 -1.37
-0.88300002 -6.908 -1.3710001
-0.86000001 -6.901 -1.369
-0.83899999 -6.9089999 -1.37
-0.81800002 -6.9200001 -1.372
-0.80400002 -6.8979998 -1.367
-0.78299999 -6.902 -1.368
-0.764 -6.9320002 -1.373
-0.73900002 -6.901 -1.3660001
-0.71700001 -6.902 -1.3660001
-0.69599998 -6.908 -1.367
-0.67199999 -6.8860002 -1.362
-0.66100001 -6.8930001 -1.363
-0.63999999 -6.901 -1.364
-0.61799997 -6.8990002 -1.363
-0.597 -6.901 -1.363
-0.57599998 -6.915 -1.3660001
-0.55299997 -6.9070001 -1.364
-0.53100002 -6.901 -1.362
-0.52100003 -6.9169998 -1.365
-0.5 -6.921 -1.3660001
-0.477 -6.9120002 -1.364
-0.456 -6.9239998 -1.3660001
-0.43399999 -6.9089999 -1.362
-0.412 -6.9089999 -1.362
-0.38999999 -6.914 -1.363
-0.37900001 -6.9109998 -1.362
-0.35800001 -6.9250002 -1.365
-0.336 -6.921 -1.364
-0.31400001 -6.9099998 -1.3609999
-0.292 -6.9089999 -1.3609999
-0.271 -6.927 -1.365
-0.25999999 -6.9099998 -1.3609999
-0.23800001 -6.921 -1.363
-0.21600001 -6.9200001 -1.362
-0.19499999 -6.928 -1.364
-0.17299999 -6.9169998 -1.362
-0.15099999 -6.9229999 -1.363
-0.12899999 -6.9219999 -1.362
-0.119 -6.9380002 -1.3660001
-0.097000003 -6.9359999 -1.365
-0.075000003 -6.9299998 -1.364
-0.052999999 -6.9400001 -1.3660001
-0.032000002 -6.9390001 -1.3660001
-0.0099999998 -6.941 -1.3660001
0.012 -6.9330001 -1.365
0.023 -6.9439998 -1.367
0.045000002 -6.9250002 -1.363
0.066 -6.9310002 -1.364
0.088 -6.9219999 -1.362
0.11 -6.9320002 -1.365
0.132 -6.941 -1.367
0.154 -6.9310002 -1.365
0.175 -6.9289999 -1.364
0.186 -6.9380002 -1.3660001
0.208 -6.9390001 -1.367
0.23 -6.9349999 -1.3660001
0.252 -6.9460001 -1.368
0.27399999 -6.941 -1.368
0.29499999 -6.9299998 -1.365
0.30599999 -6.9299998 -1.365
0.32800001 -6.9289999 -1.365
0.34900001 -6.9239998 -1.365
0.37200001 -6.9310002 -1.3660001
0.39399999 -6.9330001 -1.367
0.41499999 -6.9299998 -1.367
0.43700001 -6.927 -1.3660001
0.44800001 -6.928 -1.367
0.47099999 -6.9380002 -1.369
0.493 -6.9429998 -1.37
0.51599997 -6.9590001 -1.374
0.537 -6.947 -1.372
0.55900002 -6.9460001 -1.372
0.58099997 -6.9439998 -1.372
0.59100002 -6.9390001 -1.3710001
0.61500001 -6.9549999 -1.375
0.63700002 -6.96 -1.377
0.65899998 -6.9580002 -1.377
0.68099999 -6.9580002 -1.377
0.70300001 -6.9559999 -1.377
0.72399998 -6.948 -1.376
0.74800003 -6.961 -1.3789999
0.759 -6.9640002 -1.38
0.78100002 -6.9629998 -1.381
0.80299997 -6.9629998 -1.381
0.82599998 -6.9660001 -1.382
0.847 -6.96 -1.381
0.87099999 -6.9689999 -1.3839999
0.88099998 -6.9650002 -1.383
0.90600002 -6.9860001 -1.3890001
0.926 -6.9689999 -1.386
0.949 -6.9720001 -1.387
0.97100002 -6.9689999 -1.387
0.995 -6.9780002 -1.3890001
1.015 -6.9650002 -1.387
1.027 -6.973 -1.3890001
1.049 -6.9679999 -1.3890001
1.072 -6.9720001 -1.391
1.094 -6.967 -1.39
1.119 -6.9829998 -1.3940001
1.1390001 -6.967 -1.392
1.163 -6.9749999 -1.3940001
1.173 -6.9720001 -1.3940001
1.196 -6.974 -1.395
1.219 -6.974 -1.396
1.2410001 -6.974 -1.397
1.2640001 -6.974 -1.398
1.2869999 -6.973 -1.399
1.3099999 -6.9770002 -1.4
1.3329999 -6.9770002 -1.401
1.3430001 -6.9710002 -1.4
1.367 -6.9780002 -1.403
1.39 -6.98 -1.404
1.411 -6.9710002 -1.403
1.434 -6.9689999 -1.404
1.46 -6.987 -1.409
1.4680001 -6.9699998 -1.405
1.489 -6.9629998 -1.405
1.516 -6.9809999 -1.41
1.535 -6.9629998 -1.4069999
1.559 -6.9660001 -1.409
1.584 -6.974 -1.4119999
1.603 -6.9580002 -1.409
1.6160001 -6.9629998 -1.411
1.642 -6.9749999 -1.415
1.661 -6.96 -1.4119999
1.6849999 -6.961 -1.414
1.714 -6.9860001 -1.42
1.737 -6.9819999 -1.421
1.7589999 -6.98 -1.4220001
1.775 -6.9949999 -1.425
1.795 -6.9829998 -1.424
1.8200001 -6.987 -1.426
1.844 -6.9910002 -1.428
1.865 -6.9809999 -1.428
1.8890001 -6.9809999 -1.429
1.9119999 -6.9790001 -1.4299999
1.9220001 -6.9759998 -1.4299999
1.942 -6.96 -1.428
1.971 -6.9809999 -1.433
1.992 -6.9710002 -1.433
2.016 -6.9720001 -1.434
2.0420001 -6.98 -1.438
2.063 -6.9699998 -1.437
2.075 -6.9710002 -1.438
2.1010001 -6.9770002 -1.441
2.1199999 -6.9590001 -1.438
2.145 -6.9640002 -1.441
2.171 -6.9699998 -1.444
2.1900001 -6.9559999 -1.442
2.2149999 -6.9559999 -1.444
2.2309999 -6.9699998 -1.447
2.247 -6.9460001 -1.444
2.2709999 -6.9439998 -1.4450001
2.2950001 -6.9429998 -1.446
2.313 -6.9260001 -1.444
2.3369999 -6.9239998 -1.4450001
2.3510001 -6.895 -1.4400001
2.368 -6.908 -1.444
2.391 -6.9039998 -1.4450001
2.4159999 -6.908 -1.447
2.4389999 -6.9039998 -1.448
2.461 -6.8959999 -1.448
2.487 -6.8990002 -1.451
2.5039999 -6.8800001 -1.448
2.5190001 -6.8870001 -1.451
2.5369999 -6.8699999 -1.449
2.5599999 -6.8639998 -1.449
2.5829999 -6.862 -1.45
2.6029999 -6.8499999 -1.449
2.6259999 -6.8449998 -1.45
2.6489999 -6.8390002 -1.451
2.658 -6.8309999 -1.45
2.6789999 -6.823 -1.45
2.701 -6.8140001 -1.45
2.721 -6.8039999 -1.449
2.7460001 -6.802 -1.451
2.7639999 -6.7859998 -1.449
2.786 -6.7800002 -1.45
2.7980001 -6.7789998 -1.451
2.819 -6.7680001 -1.45
2.836 -6.75 -1.448
2.8570001 -6.7410002 -1.448
2.8800001 -6.7360001 -1.449
2.901 -6.7270002 -1.449
2.9260001 -6.7270002 -1.451
2.9419999 -6.7329998 -1.454
2.957 -6.711 -1.451
2.9779999 -6.7020001 -1.451
3.003 -6.6989999 -1.452
3.0220001 -6.6859999 -1.451
3.04 -6.6719999 -1.45
3.066 -6.6729999 -1.4529999
3.0739999 -6.6620002 -1.451
3.0969999 -6.6560001 -1.452
3.1229999 -6.6570001 -1.455
3.138 -6.6350002 -1.452
3.1630001 -6.6339998 -1.454
3.181 -6.619 -1.4529999
3.201 -6.6069999 -1.452
3.2130001 -6.605 -1.4529999
3.234 -6.5949998 -1.4529999
3.2520001 -6.5799999 -1.452
3.277 -6.5780001 -1.454
3.3 -6.573 -1.455
3.3139999 -6.5489998 -1.452
3.325 -6.5450001 -1.452
3.3529999 -6.5489998 -1.456
3.368 -6.5279999 -1.4529999
3.3959999 -6.5310001 -1.457
3.4130001 -6.513 -1.455
3.437 -6.5100002 -1.457
3.451 -6.487 -1.454
3.464 -6.4860001 -1.455
3.4860001 -6.4790001 -1.456
3.506 -6.4679999 -1.456
3.5309999 -6.4650002 -1.4579999
3.549 -6.4489999 -1.457
3.573 -6.4450002 -1.4579999
3.595 -6.4369998 -1.459
3.5999999 -6.4229999 -1.457
3.6199999 -6.4109998 -1.457
3.6470001 -6.4120002 -1.46
3.665 -6.3969998 -1.459
3.684 -6.3839998 -1.459
3.7049999 -6.3740001 -1.459
3.7260001 -6.3639998 -1.459
3.7320001 -6.3509998 -1.4579999
3.76 -6.3530002 -1.461
3.7809999 -6.3429999 -1.462
3.7950001 -6.3210001 -1.459
3.8169999 -6.3119998 -1.46
3.8440001 -6.3119998 -1.4630001
3.8599999 -6.2930002 -1.461
3.869 -6.2849998 -1.461
3.898 -6.2880001 -1.464
3.908 -6.2610002 -1.461
3.9260001 -6.2449999 -1.46
3.957 -6.2509999 -1.464
3.9719999 -6.2319999 -1.4630001
3.9849999 -6.21 -1.46
4.0089998 -6.2249999 -1.466
4.0209999 -6.2010002 -1.4630001
4.046 -6.1960001 -1.465
4.066 -6.1849999 -1.465
4.079 -6.1630001 -1.4630001
4.105 -6.1589999 -1.465
4.1300001 -6.1550002 -1.467
4.131 -6.1350002 -1.464
4.1609998 -6.138 -1.4680001
4.184 -6.1300001 -1.47
4.2020001 -6.1149998 -1.469
4.217 -6.0960002 -1.467
4.2399998 -6.0890002 -1.469
4.2550001 -6.0689998 -1.467
4.2670002 -6.066 -1.4680001
4.2940001 -6.0630002 -1.471
4.3080001 -6.0430002 -1.47
4.336 -6.0419998 -1.473
4.355 -6.0289998 -1.473
4.3709998 -6.0100002 -1.472
4.3870001 -5.993 -1.471
4.4070001 -6.0009999 -1.475
4.4190001 -5.9770002 -1.472
4.4359999 -5.9619999 -1.472
4.4619999 -5.9569998 -1.474
4.4819999 -5.9450002 -1.475
4.5050001 -5.9369998 -1.476
4.5180001 -5.9349999 -1.478
4.5289998 -5.9089999 -1.475
4.5510001 -5.9000001 -1.476
4.5749998 -5.8930001 -1.478
4.5949998 -5.8800001 -1.478
4.6149998 -5.8670001 -1.479
4.6399999 -5.862 -1.4809999
4.6420002 -5.8460002 -1.479
4.665 -5.8369999 -1.48
4.6849999 -5.8239999 -1.4809999
4.7010002 -5.8060002 -1.48
4.7249999 -5.7989998 -1.482
4.75 -5.7919998 -1.484
4.7690001 -5.7779999 -1.485
4.7810001 -5.7740002 -1.485
4.8060002 -5.7680001 -1.488
4.8179998 -5.7449999 -1.4859999
4.8369999 -5.7309999 -1.4859999
4.8579998 -5.7189999 -1.487
4.869 -5.6960001 -1.485
4.8940001 -5.6880002 -1.487
4.901 -5.6789999 -1.487
4.9289999 -5.6760001 -1.49
4.9450002 -5.6570001 -1.489
4.9699998 -5.6500001 -1.492
4.9840002 -5.6300001 -1.4910001
5.0029998 -5.6160002 -1.4910001
5.0250001 -5.605 -1.492
5.0359998 -5.5999999 -1.493
5.0630002 -5.5939999 -1.4960001
5.0780001 -5.5749998 -1.495
5.0999999 -5.5650001 -1.497
5.1209998 -5.552 -1.498
5.1370001 -5.5339999 -1.497
5.1589999 -5.5240002 -1.499
5.1680002 -5.5159998 -1.499
5.1880002 -5.5019999 -1.5
5.211 -5.4920001 -1.501
5.2309999 -5.4780002 -1.502
5.2550001 -5.4689999 -1.5039999
5.2719998 -5.4520001 -1.5039999
5.2750001 -5.4380002 -1.503
5.2950001 -5.4239998 -1.5039999
5.3169999 -5.4130001 -1.505
5.3330002 -5.395 -1.505
5.3590002 -5.388 -1.508
5.3829999 -5.3779998 -1.51
5.4060001 -5.3670001 -1.512
5.4200001 -5.3470001 -1.511
5.4380002 -5.348 -1.5140001
5.4530001 -5.329 -1.513
5.4689999 -5.3109999 -1.513
5.4850001 -5.2940001 -1.513
5.5120001 -5.2859998 -1.516
5.5300002 -5.27 -1.516
5.5380001 -5.2610002 -1.516
5.553 -5.2420001 -1.516
5.5739999 -5.2290001 -1.517
5.585 -5.2059999 -1.515
5.6090002 -5.1960001 -1.518
5.6269999 -5.1799998 -1.518
5.658 -5.1760001 -1.522
5.665 -5.165 -1.522
5.6869998 -5.1529999 -1.524
5.7220001 -5.152 -1.529
5.757 -5.151 -1.535
7.7270002 -2.1340001 -1.597
7.7199998 -2.1070001 -1.594
7.7459998 -2.0869999 -1.598
7.7329998 -2.0580001 -1.594
7.7550001 -2.0380001 -1.598
7.7709999 -2.016 -1.6
7.77 -2.003 -1.599
7.7880001 -1.9809999 -1.601
7.809 -1.96 -1.605
7.8000002 -1.932 -1.601
7.823 -1.9119999 -1.605
7.8390002 -1.8890001 -1.607
7.8270001 -1.8609999 -1.603
7.842 -1.851 -1.6059999
7.8530002 -1.8279999 -1.607
7.8590002 -1.803 -1.607
7.8779998 -1.781 -1.61
7.9029999 -1.761 -1.614
7.895 -1.733 -1.6109999
7.9120002 -1.711 -1.614
7.9289999 -1.701 -1.617
7.9289999 -1.675 -1.6160001
7.9299998 -1.65 -1.615
7.961 -1.63 -1.6210001
7.9619999 -1.604 -1.62
7.973 -1.58 -1.6210001
7.9910002 -1.558 -1.624
7.98 -1.5420001 -1.6210001
8.0139999 -1.523 -1.627
8.0530005 -1.5039999 -1.635
8.1129999 -1.489 -1.647
8.1639996 -1.471 -1.6569999
8.2069998 -1.452 -1.666
8.2410002 -1.431 -1.6720001
8.2349997 -1.4170001 -1.67
8.2609997 -1.395 -1.675
8.2729998 -1.37 -1.676
8.2679996 -1.3430001 -1.674
8.276 -1.317 -1.675
8.2700005 -1.29 -1.673
8.2950001 -1.28 -1.678
8.2840004 -1.252 -1.675
8.2989998 -1.228 -1.677
8.29 -1.2 -1.674
8.3030005 -1.175 -1.676
8.3219995 -1.151 -1.6799999
8.302 -1.122 -1.675
8.3199997 -1.1109999 -1.678
8.3129997 -1.0829999 -1.676
8.3269997 -1.058 -1.678
8.3299999 -1.0319999 -1.678
8.3369999 -1.006 -1.679
8.342 -0.98100001 -1.679
8.3430004 -0.954 -1.679
8.3389997 -0.94 -1.678
8.3319998 -0.91299999 -1.676
8.323 -0.88599998 -1.673
8.3610001 -0.86299998 -1.681
8.3789997 -0.838 -1.684
8.3640003 -0.81 -1.6799999
8.3299999 -0.78100002 -1.6720001
8.3830004 -0.77200001 -1.684
8.3719997 -0.745 -1.681
8.3940001 -0.72000003 -1.6849999
8.3900003 -0.69300002 -1.684
8.3889999 -0.667 -1.683
8.3769999 -0.639 -1.6799999
8.3889999 -0.61400002 -1.682
8.4069996 -0.602 -1.686
8.3719997 -0.57300001 -1.678
8.3909998 -0.54799998 -1.682
8.3809996 -0.52100003 -1.679
8.3590002 -0.493 -1.674
8.3999996 -0.46900001 -1.682
8.3979998 -0.442 -1.682
8.3959999 -0.42899999 -1.681
8.382 -0.40200001 -1.678
8.3929996 -0.37599999 -1.6799999
8.4040003 -0.34999999 -1.682
8.4209995 -0.324 -1.6849999
8.3900003 -0.296 -1.679
8.4320002 -0.285 -1.687
8.4309998 -0.25799999 -1.687
8.3979998 -0.23100001 -1.6799999
8.434 -0.205 -1.687
8.4069996 -0.178 -1.682
8.4119997 -0.152 -1.682
8.4119997 -0.125 -1.682
8.4420004 -0.098999999 -1.689
8.4200001 -0.086000003 -1.684
8.4440002 -0.059 -1.689
8.4309998 -0.033 -1.686
8.4370003 -0.0060000001 -1.687
8.0959997 0.0099999998 -1.681
8.1020002 0.035999998 -1.682
8.1029997 0.061000001 -1.683
8.092 0.086999997 -1.6799999
8.0950003 0.112 -1.681
8.1239996 0.125 -1.687
8.1099997 0.15099999 -1.684
8.1140003 0.176 -1.6849999
8.0950003 0.20100001 -1.681
8.1219997 0.227 -1.687
8.1210003 0.25299999 -1.687
8.1260004 0.27900001 -1.689
8.1099997 0.29100001 -1.6849999
8.1090002 0.31600001 -1.6849999
8.1490002 0.34299999 -1.694
8.1339998 0.368 -1.691
8.1330004 0.39399999 -1.691
8.1260004 0.419 -1.6900001
8.1540003 0.44600001 -1.696
8.1569996 0.45899999 -1.697
8.132 0.484 -1.692
8.125 0.509 -1.691
8.1560001 0.53600001 -1.698
8.1569996 0.56199998 -1.699
8.1549997 0.588 -1.699
8.1450005 0.61299998 -1.697
8.1809998 0.62800002 -1.705
8.1639996 0.653 -1.702
8.1499996 0.67699999 -1.699
8.1300001 0.70200002 -1.6950001
8.0769997 0.72299999 -1.684
8.1490002 0.755 -1.7
8.125 0.778 -1.696
8.1459999 0.80599999 -1.701
8.1230001 0.81699997 -1.696
8.158 0.84600002 -1.704
8.1429996 0.87099999 -1.702
8.1479998 0.89700001 -1.7029999
8.1379995 0.92199999 -1.702
8.1560001 0.94999999 -1.706
8.1269999 0.95899999 -1.7
8.1569996 0.98900002 -1.7079999
8.1520004 1.0140001 -1.707
8.1610003 1.041 -1.71
8.1590004 1.067 -1.71
8.1420002 1.091 -1.707
8.1789999 1.122 -1.716
8.1619997 1.133 -1.7130001
8.1619997 1.159 -1.714
8.1529999 1.184 -1.7130001
8.1780005 1.2130001 -1.719
8.1820002 1.24 -1.721
8.1429996 1.261 -1.7130001
8.1569996 1.289 -1.717
8.1549997 1.302 -1.717
8.158 1.329 -1.719
8.1560001 1.355 -1.719
8.1669998 1.383 -1.723
8.1569996 1.4069999 -1.721
8.158 1.434 -1.723
8.1560001 1.46 -1.723
8.1529999 1.473 -1.723
8.1660004 1.502 -1.727
8.1520004 1.525 -1.725
8.1540003 1.552 -1.726
8.1689997 1.582 -1.7309999
8.1429996 1.603 -1.726
8.1639996 1.6339999 -1.732
8.1409998 1.643 -1.727
8.1199999 1.665 -1.724
8.1000004 1.688 -1.72
8.1520004 1.725 -1.733
8.1420002 1.75 -1.733
8.1409998 1.776 -1.733
8.1730003 1.8099999 -1.742
8.151 1.819 -1.738
8.1569996 1.847 -1.74
8.1549997 1.873 -1.7410001
8.1680002 1.903 -1.7460001
8.1540003 1.927 -1.744
8.1389999 1.951 -1.742
8.1379995 1.978 -1.743
8.1309996 1.989 -1.742
8.1800003 2.0280001 -1.755
8.1280003 2.043 -1.744
8.1520004 2.076 -1.751
8.1280003 2.0969999 -1.747
8.1289997 2.125 -1.749
8.1789999 2.165 -1.762
8.1630001 2.174 -1.7589999
8.1599998 2.201 -1.76
8.1470003 2.2249999 -1.7589999
8.1459999 2.2520001 -1.76
8.1379995 2.2780001 -1.76
8.1350002 2.3039999 -1.761
8.1820002 2.345 -1.773
8.1899996 2.3610001 -1.776
8.177 2.3859999 -1.775
8.1730003 2.4119999 -1.776
8.1470003 2.4319999 -1.771
8.1520004 2.4619999 -1.774
8.1929998 2.5020001 -1.786
8.1899996 2.53 -1.7869999
8.158 2.5339999 -1.78
8.2049999 2.576 -1.793
8.1820002 2.5969999 -1.79
8.1750002 2.6240001 -1.79
8.1969995 2.6589999 -1.7970001
8.1750002 2.6800001 -1.794
8.1800003 2.71 -1.7970001
8.198 2.7309999 -1.802
8.1820002 2.7539999 -1.8
8.1879997 2.7850001 -1.804
8.1879997 2.813 -1.806
8.2030001 2.8469999 -1.812
8.2089996 2.878 -1.8150001
8.1999998 2.904 -1.8150001
8.1829996 2.9119999 -1.812
8.2069998 2.95 -1.8200001
8.2229996 2.9849999 -1.826
8.1949997 3.0039999 -1.822
8.1780005 3.027 -1.8200001
8.191 3.0610001 -1.825
8.184 3.073 -1.825
8.1739998 3.099 -1.825
8.1739998 3.128 -1.827
8.1619997 3.1530001 -1.826
8.1700001 3.1849999 -1.831
8.1789999 3.2179999 -1.835
8.1560001 3.2390001 -1.832
8.1450005 3.2639999 -1.832
8.1800003 3.293 -1.842
8.1520004 3.312 -1.837
8.1409998 3.3369999 -1.837
8.1429996 3.368 -1.84
8.1289997 3.392 -1.84
8.1490002 3.4300001 -1.847
8.158 3.464 -1.852
8.1470003 3.4749999 -1.85
8.1379995 3.5009999 -1.851
8.1499996 3.5369999 -1.857
8.1190004 3.5539999 -1.852
8.1239996 3.586 -1.8559999
8.1429996 3.625 -1.863
8.1499996 3.6589999 -1.867
8.1330004 3.6670001 -1.865
8.1479998 3.704 -1.8710001
8.1400003 3.7309999 -1.872
8.1529999 3.7679999 -1.878
8.1540003 3.8 -1.881
8.1599998 3.8340001 -1.886
8.1459999 3.858 -1.885
8.1560001 3.8789999 -1.8890001
8.1359997 3.901 -1.887
8.1499996 3.9389999 -1.8940001
8.1540003 3.9719999 -1.898
8.1450005 4 -1.899
8.1219997 4.02 -1.896
8.1219997 4.0359998 -1.898
8.1339998 4.0739999 -1.904
8.125 4.1009998 -1.905
8.0930004 4.1170001 -1.9
8.118 4.1620002 -1.91
8.1049995 4.1869998 -1.91
8.1040001 4.2189999 -1.913
8.1040001 4.2350001 -1.914
8.0749998 4.2529998 -1.91
8.0830002 4.289 -1.916
8.0710001 4.3150001 -1.916
8.0609999 4.342 -1.9170001
8.0500002 4.3699999 -1.918
8.052 4.4029999 -1.9220001
8.0539999 4.421 -1.924
8.0469999 4.4499998 -1.926
8.0450001 4.4819999 -1.929
8.0340004 4.5089998 -1.9299999
8.0319996 4.5409999 -1.933
8.0019999 4.5570002 -1.929
8.0109997 4.5960002 -1.9349999
7.9959998 4.6040001 -1.933
8 4.6389999 -1.937
7.9699998 4.6560001 -1.934
7.9689999 4.6890001 -1.937
7.8530002 4.6539998 -1.911
7.5679998 4.5180001 -1.841
7.493 4.506 -1.825
7.4710002 4.5089998 -1.821
7.467 4.5380001 -1.824
7.408 4.5339999 -1.812
7.3850002 4.553 -1.8099999
7.3130002 4.54 -1.795
7.2119999 4.5089998 -1.772
7.1900001 4.527 -1.77
7.1430001 4.513 -1.76
7.132 4.5380001 -1.76
7.1079998 4.5539999 -1.758
7.1149998 4.5900002 -1.763
7.0149999 4.5570002 -1.7410001
6.9699998 4.559 -1.733
6.9180002 4.5560002 -1.723
6.9169998 4.5710001 -1.724
6.862 4.566 -1.7130001
6.8260002 4.5739999 -1.7079999
6.8140001 4.5960002 -1.7079999
6.7849998 4.6079998 -1.704
6.7600002 4.6220002 -1.702
6.757 4.651 -1.705
6.7550001 4.665 -1.706
6.75 4.6929998 -1.709
6.744 4.7210002 -1.711
6.7280002 4.7410002 -1.711
6.7160001 4.7639999 -1.712
6.711 4.7919998 -1.714
6.6999998 4.8169999 -1.716
6.71 4.8400002 -1.72
6.7030001 4.8660002 -1.723
6.6960001 4.8930001 -1.725
6.6929998 4.9229999 -1.728
6.6849999 4.9499998 -1.73
6.6810002 4.9790001 -1.733
6.6739998 5.007 -1.7359999
6.684 5.0310001 -1.7410001
6.6760001 5.0570002 -1.743
6.678 5.0929999 -1.748
6.6760001 5.1240001 -1.752
6.7340002 5.2020001 -1.773
7.0149999 5.4520001 -1.857
7.0479999 5.5139999 -1.8710001
7.0409999 5.526 -1.8710001
7.0300002 5.553 -1.873
7.0229998 5.5840001 -1.876
6.9920001 5.5949998 -1.872
6.974 5.6170001 -1.872
6.9699998 5.6500001 -1.876
6.9450002 5.665 -1.874
6.9349999 5.6750002 -1.873
6.9349999 5.7119999 -1.8789999
6.908 5.7259998 -1.876
6.8850002 5.744 -1.875
6.875 5.7719998 -1.877
6.8429999 5.7820001 -1.873
6.8319998 5.8099999 -1.875
6.8410001 5.836 -1.88
6.8080001 5.8439999 -1.876
6.7919998 5.868 -1.877
6.783 5.8969998 -1.88
6.7639999 5.9190001 -1.88
6.737 5.9320002 -1.877
6.737 5.9699998 -1.883
6.7220001 5.9749999 -1.881
6.697 5.9910002 -1.8789999
6.7030001 6.0339999 -1.887
6.6810002 6.053 -1.886
6.664 6.0749998 -1.886
6.6529999 6.1040001 -1.8890001
6.6370001 6.1269999 -1.89
6.6240001 6.1350002 -1.8890001
6.625 6.1750002 -1.895
6.5939999 6.1849999 -1.891
6.585 6.2150002 -1.8940001
6.585 6.2540002 -1.9
6.546 6.256 -1.8940001
6.5469999 6.277 -1.898
6.526 6.296 -1.897
6.506 6.3169999 -1.897
6.4860001 6.3369999 -1.897
6.4770002 6.368 -1.901
6.4460001 6.3779998 -1.897
6.4359999 6.408 -1.9
6.421 6.4330001 -1.902
6.4039998 6.4359999 -1.9
6.3909998 6.4629998 -1.902
6.3790002 6.4920001 -1.905
6.3610001 6.5149999 -1.906
6.336 6.5300002 -1.904
6.3270001 6.5609999 -1.908
6.2930002 6.5669999 -1.903
6.2969999 6.5929999 -1.908
6.2820001 6.618 -1.91
6.257 6.6329999 -1.909
6.2470002 6.664 -1.9119999
6.2220001 6.6799998 -1.911
6.2049999 6.704 -1.9119999
6.1890001 6.7290001 -1.914
6.1880002 6.7490001 -1.9170001
6.1680002 6.7690001 -1.9170001
6.1500001 6.7930002 -1.919
6.1290002 6.8119998 -1.919
6.105 6.829 -1.918
6.0900002 6.855 -1.92
6.0679998 6.8740001 -1.92
6.059 6.8850002 -1.92
6.0419998 6.9099998 -1.9220001
6.026 6.9349999 -1.924
6.0050001 6.9549999 -1.924
5.9770002 6.967 -1.9220001
5.9640002 6.9959998 -1.925
5.9380002 7.0100002 -1.924
5.9320002 7.0250001 -1.926
5.9130001 7.0469999 -1.927
5.8800001 7.053 -1.923
5.8730001 7.0900002 -1.928
5.8460002 7.1020002 -1.927
5.8239999 7.1209998 -1.927
5.8039999 7.1420002 -1.927
5.7940001 7.1529999 -1.928
5.777 7.178 -1.9299999
5.7509999 7.1919999 -1.929
5.7309999 7.2129998 -1.9299999
5.711 7.2340002 -1.9299999
5.6919999 7.256 -1.932
5.6700001 7.276 -1.932
5.6560001 7.2820001 -1.931
5.6389999 7.3070002 -1.934
5.6100001 7.3169999 -1.931
5.5929999 7.342 -1.934
5.5679998 7.3569999 -1.933
5.5430002 7.3730001 -1.932
5.5240002 7.395 -1.934
5.5050001 7.3940001 -1.931
5.4910002 7.4239998 -1.934
5.467 7.4400001 -1.934
5.4359999 7.447 -1.931
5.4260001 7.4819999 -1.936
5.402 7.4990001 -1.936
5.3800001 7.5170002 -1.937
5.3699999 7.5289998 -1.937
5.3410001 7.5380001 -1.9349999
5.3150001 7.5510001 -1.934
5.2849998 7.5599999 -1.932
5.2690001 7.5879998 -1.9349999
5.2389998 7.5949998 -1.933
5.2179999 7.6160002 -1.934
5.2090001 7.6269999 -1.9349999
5.191 7.6529999 -1.937
5.1630001 7.6630001 -1.936
5.138 7.678 -1.9349999
5.1110001 7.6900001 -1.934
5.0879998 7.7080002 -1.9349999
5.0640001 7.724 -1.9349999
5.0560002 7.7379999 -1.937
5.0359998 7.7610002 -1.938
5.0089998 7.7729998 -1.937
4.9829998 7.7859998 -1.937
4.9640002 7.8099999 -1.939
4.9380002 7.8239999 -1.938
4.9190001 7.8470001 -1.9400001
4.9060001 7.855 -1.9400001
4.8800001 7.8670001 -1.9400001
4.8579998 7.8870001 -1.941
4.8309999 7.8990002 -1.9400001
4.809 7.9190001 -1.941
4.7909999 7.9460001 -1.944
4.7589998 7.9489999 -1.941
4.7340002 7.9640002 -1.941
4.723 7.973 -1.942
4.698 7.9879999 -1.942
4.6799998 8.0150003 -1.9450001
4.6500001 8.0229998 -1.943
4.6300001 8.0459995 -1.9450001
4.5999999 8.052 -1.943
4.573 8.0629997 -1.942
4.5640001 8.0769997 -1.944
4.5409999 8.0959997 -1.9450001
4.5149999 8.1090002 -1.9450001
4.4899998 8.1239996 -1.9450001
4.4679999 8.1440001 -1.947
4.441 8.1560001 -1.946
4.4180002 8.1750002 -1.947
4.3990002 8.1700001 -1.944
4.3779998 8.1920004 -1.947
4.3499999 8.2030001 -1.946
4.3280001 8.2229996 -1.947
4.3000002 8.2309999 -1.946
4.2779999 8.2539997 -1.948
4.2519999 8.2670002 -1.948
4.2399998 8.2749996 -1.949
4.2150002 8.29 -1.949
4.191 8.3070002 -1.95
4.165 8.3199997 -1.95
4.1389999 8.335 -1.95
4.112 8.3459997 -1.95
4.092 8.3710003 -1.9529999
4.085 8.3900003 -1.956
4.059 8.4029999 -1.956
4.0359998 8.4230003 -1.9579999
4.0139999 8.4460001 -1.96
3.9849999 8.4530001 -1.959
3.9630001 8.474 -1.961
3.938 8.4899998 -1.962
3.927 8.5019999 -1.964
3.9030001 8.5209999 -1.965
3.8789999 8.5389996 -1.967
3.8529999 8.5530005 -1.967
3.8280001 8.5679998 -1.9680001
3.799 8.5769997 -1.967
3.7739999 8.5939999 -1.9680001
3.767 8.6120005 -1.971
3.7379999 8.6210003 -1.97
3.7149999 8.6429996 -1.973
3.691 8.6599998 -1.974
3.665 8.6750002 -1.975
3.635 8.6809998 -1.974
3.609 8.6940002 -1.974
3.6010001 8.7139997 -1.978
3.569 8.7150002 -1.975
3.543 8.7279997 -1.976
3.52 8.7519999 -1.979
3.4890001 8.7539997 -1.977
3.4619999 8.7650003 -1.977
3.4360001 8.7810001 -1.978
3.4170001 8.7729998 -1.975
3.3900001 8.7840004 -1.975
3.3640001 8.7980003 -1.976
3.3299999 8.7939997 -1.972
3.3 8.7969999 -1.97
3.2820001 8.8330002 -1.977
3.2449999 8.8179998 -1.97
3.2290001 8.8190002 -1.97
3.207 8.8439999 -1.973
3.178 8.8509998 -1.972
3.148 8.8529997 -1.97
3.1240001 8.8760004 -1.974
3.0929999 8.8760004 -1.971
3.063 8.8809996 -1.97
3.0420001 8.9099998 -1.975
3.0250001 8.9040003 -1.972
2.9949999 8.9099998 -1.971
2.971 8.9300003 -1.974
2.9419999 8.9379997 -1.974
2.915 8.9490004 -1.974
2.8900001 8.9689999 -1.977
2.8599999 8.9729996 -1.975
2.846 8.9750004 -1.975
2.8210001 8.9949999 -1.977
2.7909999 8.9980001 -1.976
2.7620001 9.0050001 -1.976
2.7360001 9.0200005 -1.977
2.7060001 9.0229998 -1.976
2.677 9.0310001 -1.976
2.6719999 9.0649996 -1.983
2.638 9.0570002 -1.979
2.609 9.0609999 -1.978
2.586 9.0900002 -1.983
2.5510001 9.0749998 -1.977
2.5250001 9.0909996 -1.979
2.5009999 9.1140003 -1.983
2.484 9.1099997 -1.9809999
2.4560001 9.118 -1.9809999
2.431 9.1429996 -1.985
2.4000001 9.1389999 -1.982
2.375 9.1619997 -1.9859999
2.346 9.1689997 -1.9859999
2.316 9.1719999 -1.985
2.3039999 9.184 -1.987
2.277 9.198 -1.988
2.247 9.2019997 -1.987
2.2179999 9.2069998 -1.987
2.1919999 9.2290001 -1.99
2.1600001 9.2209997 -1.987
2.1289999 9.2220001 -1.9859999
2.1140001 9.2209997 -1.985
2.085 9.2259998 -1.984
2.0550001 9.2299995 -1.984
2.0280001 9.243 -1.985
1.999 9.2510004 -1.9859999
1.97 9.2589998 -1.9859999
1.939 9.2559996 -1.984
1.925 9.2589998 -1.984
1.896 9.2670002 -1.984
1.868 9.2799997 -1.9859999
1.839 9.2840004 -1.9859999
1.8099999 9.2919998 -1.9859999
1.7819999 9.3030005 -1.987
1.753 9.309 -1.987
1.737 9.3070002 -1.987
1.7079999 9.3109999 -1.9859999
1.679 9.3199997 -1.987
1.65 9.3249998 -1.987
1.6210001 9.3310003 -1.987
1.592 9.3389997 -1.988
1.561 9.3369999 -1.9859999
1.534 9.3570004 -1.99
1.518 9.3459997 -1.987
1.49 9.3640003 -1.99
1.46 9.3610001 -1.988
1.432 9.3789997 -1.9910001
1.402 9.3760004 -1.989
1.372 9.3760004 -1.988
1.344 9.3940001 -1.9910001
1.327 9.3769999 -1.987
1.2970001 9.3809996 -1.987
1.267 9.3769999 -1.985
1.238 9.3870001 -1.987
1.2079999 9.3909998 -1.987
1.1799999 9.3999996 -1.988
1.15 9.4040003 -1.988
1.136 9.408 -1.988
1.107 9.4209995 -1.99
1.076 9.4130001 -1.988
1.049 9.4370003 -1.993
1.018 9.4250002 -1.989
0.98799998 9.4239998 -1.988
0.95899999 9.4329996 -1.99
0.94400001 9.4390001 -1.99
0.91399997 9.4399996 -1.99
0.88499999 9.4460001 -1.9910001
0.85600001 9.4549999 -1.992
0.82700002 9.467 -1.994
0.796 9.4540005 -1.9910001
0.76599997 9.4469995 -1.989
0.75099999 9.4540005 -1.99
0.722 9.4639997 -1.992
0.69199997 9.4610004 -1.99
0.66299999 9.4689999 -1.992
0.634 9.4820004 -1.994
0.60399997 9.4799995 -1.994
0.574 9.4799995 -1.993
0.55900002 9.4849997 -1.994
0.52899998 9.4890003 -1.994
0.5 9.4960003 -1.9960001
0.47 9.4879999 -1.994
0.44100001 9.5109997 -1.998
0.41100001 9.5139999 -1.999
0.38100001 9.507 -1.997
0.366 9.5 -1.995
0.336 9.507 -1.997
0.30599999 9.5100002 -1.997
